# .PCD v0.7 - Point Cloud Data file format
VERSION 0.7
FIELDS x y z
SIZE 4 4 4
TYPE F F F
COUNT 1 1 1
WIDTH 1420
HEIGHT 1
VIEWPOINT 0 0 0 1 0 0 0
POINTS 1420
DATA ascii
0.60885501 0.14894029 1.2598977
0.61615008 0.14713772 1.2582493
0.62466025 0.14569721 1.2578154
0.63282245 0.14618276 1.2598976
0.60650325 0.15549673 1.2592794
0.61519754 0.15550523 1.256189
0.6249879 0.15544577 1.2552276
0.63431245 0.15579732 1.2572349
0.64294207 0.15881908 1.2598977
0.6061179 0.16496272 1.2586613
0.61552799 0.16490725 1.2559938
0.62432671 0.16435152 1.2549527
0.63373375 0.16433771 1.2549525
0.64206934 0.16515478 1.2598977
0.60792756 0.17100435 1.2598977
0.61611211 0.17374887 1.2561889
0.62475759 0.17482141 1.2549528
0.63507873 0.17501605 1.2549529
0.64618331 0.17641893 1.2579956
0.65627855 0.17747946 1.2598977
0.6633392 0.17724428 1.2598977
0.61862773 0.18456657 1.2576997
0.62446767 0.18516299 1.2565143
0.63539839 0.18536767 1.2549528
0.64578933 0.18533117 1.2549527
0.65602291 0.18512183 1.257072
0.66382527 0.18480511 1.2598976
0.60920823 0.1984136 1.2598977
0.61657459 0.19612479 1.2598977
0.62566984 0.19457494 1.2582493
0.63520354 0.19506304 1.255852
0.64578938 0.19467311 1.2549527
0.65500748 0.19511564 1.255659
0.66468465 0.19521992 1.2590735
0.67180908 0.19896154 1.2598977
0.62663186 0.20462263 1.2598976
0.63555646 0.20455086 1.2572193
0.64552021 0.20533323 1.2549529
0.65495223 0.20493703 1.2549528
0.66572553 0.20475724 1.2578373
0.67301786 0.20555922 1.2598977
0.62840593 0.2142024 1.2598977
0.63492113 0.2139488 1.2581668
0.64504254 0.21472426 1.2560123
0.65520358 0.21518692 1.2555021
0.66389894 0.21409047 1.2572351
0.67039973 0.21487865 1.2598977
0.63490283 0.22295012 1.2598976
0.64472055 0.22362491 1.2598975
0.6542514 0.22295679 1.2593482
0.66533452 0.2252467 1.2593482
0.67622238 0.2281798 1.2598977
0.63980395 0.23016761 1.2598977
0.64333427 0.23016761 1.2598977
0.66624987 0.23555276 1.2598976
0.67549241 0.23572391 1.2598975
0.66724956 0.24429363 1.2598978
0.67451674 0.24501564 1.2598976
0.66683197 0.25469396 1.2598976
0.67520034 0.25478059 1.2598976
0.68216735 0.25721735 1.2598977
0.66726178 0.26427382 1.2598977
0.67087042 0.26356816 1.2598977
0.61697185 0.12966812 1.2687982
0.62510633 0.12852074 1.2687984
0.63554275 0.12707372 1.2687981
0.6419642 0.12875444 1.2687982
0.60562789 0.13594782 1.2687982
0.61540991 0.13579333 1.2682166
0.62408984 0.13483013 1.2648944
0.63485879 0.13510285 1.2657077
0.64279336 0.13614468 1.2687982
0.66418731 0.13792031 1.2687984
0.59946418 0.14636539 1.2687982
0.60574597 0.14499269 1.26715
0.61392581 0.14247711 1.264403
0.62450612 0.14078595 1.2638535
0.6374504 0.14360853 1.2638535
0.64526069 0.14522702 1.2683861
0.65626711 0.14818077 1.2687982
0.6636678 0.14563878 1.2687981
0.5995298 0.15497501 1.2666006
0.60303283 0.15416913 1.2638535
0.63980395 0.15137061 1.2638535
0.64596283 0.1541696 1.2655017
0.65528864 0.15478407 1.2684178
0.66355586 0.15487133 1.2687982
0.67442435 0.15653618 1.2687984
0.59846258 0.16552901 1.2663257
0.60214764 0.16548352 1.2638535
0.64877301 0.16597524 1.2638535
0.65531605 0.16495381 1.2668204
0.6640327 0.16590746 1.2687982
0.67425424 0.16471033 1.2687982
0.59654212 0.17583317 1.2681801
0.60491842 0.17567828 1.2650169
0.61324286 0.17573218 1.2638537
0.64921802 0.17253996 1.2638535
0.65551943 0.17300689 1.2644029
0.66516948 0.17388457 1.2650898
0.67445153 0.17539006 1.2684178
0.5950653 0.18502572 1.2687984
0.60539997 0.18493339 1.2681801
0.61348802 0.18452701 1.2647805
0.62568283 0.18547678 1.2638535
0.66804624 0.18077248 1.2638535
0.67474049 0.18484333 1.2659138
0.68225735 0.18560576 1.2687982
0.5951578 0.1945024 1.2687984
0.60528964 0.19439162 1.2657371
0.61430752 0.1937093 1.2638534
0.62215257 0.1984136 1.2638535
0.66804624 0.19253322 1.2638535
0.67417109 0.19373114 1.2656516
0.68119133 0.1947743 1.2687982
0.59863508 0.20392777 1.2687984
0.60529476 0.20520434 1.2666792
0.61485356 0.20618133 1.2638534
0.62283975 0.20623603 1.2646141
0.67776251 0.20627835 1.267562
0.59979081 0.21218187 1.2687982
0.60701942 0.21449734 1.2687984
0.61500001 0.21595107 1.2682489
0.62467331 0.21534565 1.2658314
0.66804624 0.21840687 1.2638535
0.67615074 0.2166096 1.2648424
0.6859746 0.21884571 1.2687982
0.60878164 0.22232224 1.2687982
0.61618185 0.22264621 1.2687984
0.62546086 0.22452232 1.2671502
0.63173479 0.22546332 1.2638537
0.65632421 0.22658341 1.2638535
0.66455632 0.22502467 1.2638534
0.67493874 0.22311118 1.2638534
0.68602306 0.22498609 1.2672768
0.62720805 0.23470849 1.2687982
0.63509238 0.23438565 1.2678564
0.6449129 0.23454379 1.2646143
0.65561211 0.23488398 1.2638533
0.66365862 0.23395491 1.2638534
0.67760676 0.23179641 1.2638535
0.68577933 0.23530252 1.2645127
0.62695307 0.24601029 1.2687982
0.63586152 0.24281022 1.2687982
0.64551038 0.24541906 1.2687985
0.65485227 0.24508707 1.2653584
0.66324681 0.24468991 1.2638534
0.67902935 0.24741673 1.2638535
0.68564522 0.24586163 1.2646775
0.62655801 0.25074789 1.2687982
0.63877666 0.2582292 1.2687982
0.64584273 0.25562257 1.2687982
0.6557216 0.25556847 1.2653369
0.6628685 0.25439474 1.2638534
0.6798138 0.25133696 1.2638535
0.68526179 0.25449368 1.2638534
0.63959402 0.26259193 1.2687982
0.64708543 0.26386729 1.2687982
0.65498132 0.2655029 1.266326
0.66342801 0.2643311 1.2638534
0.67651892 0.26450902 1.2638534
0.68654203 0.26505622 1.2667379
0.64907479 0.27206713 1.2687982
0.65654773 0.27367869 1.2672766
0.6651758 0.27448973 1.2661805
0.674348 0.27494389 1.2638534
0.6844455 0.27480665 1.2660511
0.69173813 0.27562034 1.2687982
0.66743207 0.28174543 1.2687982
0.6741178 0.28424042 1.2676347
0.68485087 0.28420466 1.2680566
0.67535639 0.29104686 1.2687984
0.68485087 0.29365021 1.2687984
0.68530482 0.30150801 1.2687984
0.6297701 0.11892516 1.2776982
0.63454378 0.11892517 1.2776983
0.6060257 0.12819764 1.2749513
0.6153239 0.12658671 1.2746556
0.6240046 0.12433341 1.2739899
0.63414234 0.12282141 1.2732482
0.6444031 0.12781456 1.2727538
0.66795969 0.12846701 1.2776982
0.68666953 0.12274086 1.272754
0.69051158 0.12193938 1.2727538
0.59754521 0.13629675 1.27399
0.60453063 0.13503212 1.2730287
0.61233687 0.13230765 1.2727538
0.64820552 0.13473991 1.2727538
0.6550945 0.1361239 1.2731658
0.66456115 0.13350995 1.2767992
0.5896647 0.14838193 1.2757205
0.59496325 0.14509244 1.2746769
0.60165644 0.14205977 1.2727538
0.64907479 0.14178286 1.2727538
0.65411139 0.14385557 1.2727538
0.58631802 0.15582819 1.2762151
0.59581828 0.15465507 1.272754
0.67352903 0.15709256 1.272754
0.57784742 0.16849534 1.2776982
0.58543605 0.16480312 1.2753339
0.59434503 0.16396351 1.2727538
0.66803628 0.16310212 1.2727538
0.67376947 0.16393304 1.2727538
0.68086934 0.16549204 1.272754
0.57784742 0.17444047 1.2776982
0.58529729 0.1747214 1.2749517
0.59320617 0.17325415 1.272754
0.67799103 0.17115605 1.2727538
0.68284994 0.17731494 1.2727538
0.58450615 0.1852669 1.2745854
0.68617314 0.18399332 1.2727538
0.58590519 0.19511431 1.2744021
0.68465203 0.19593579 1.272754
0.69211566 0.19481996 1.275226
0.58826214 0.20451252 1.2763798
0.59574556 0.20506379 1.272754
0.68604648 0.20503743 1.2739899
0.69476283 0.20618981 1.2764623
0.58974469 0.21130039 1.2776982
0.59655648 0.21375796 1.2747318
0.60403758 0.21709865 1.2727538
0.61352199 0.21995343 1.2727538
0.67988718 0.21521582 1.2727538
0.68651724 0.21480711 1.2736528
0.69396269 0.21428241 1.2770802
0.60616255 0.22409515 1.2752261
0.61447257 0.22628973 1.2727538
0.62241018 0.22883645 1.2727538
0.60863966 0.23426773 1.2776982
0.61510772 0.23516862 1.2766236
0.62267047 0.23582174 1.272754
0.60828841 0.24177641 1.2776982
0.61552602 0.24324106 1.2776982
0.62272656 0.24487035 1.2738528
0.63337231 0.24719469 1.2727538
0.62513614 0.25412735 1.276215
0.63430154 0.25450096 1.2732249
0.6419642 0.25193229 1.2727538
0.63612723 0.26474372 1.2745757
0.64433438 0.26685581 1.2727538
0.63793886 0.27275982 1.2769918
0.64629757 0.27527642 1.2750012
0.65353954 0.2769399 1.2727538
0.6489563 0.28270748 1.2776982
0.65510476 0.2840347 1.2757205
0.66448718 0.28614226 1.2739173
0.67040646 0.28746438 1.2727538
0.66583186 0.29446298 1.2771167
0.67400712 0.296121 1.2733721
0.66660422 0.30245906 1.2767093
0.6754753 0.30525872 1.2764623
0.68478596 0.30658755 1.2742753
0.69320625 0.30562177 1.2727538
0.6663211 0.31390083 1.2771488
0.67477679 0.31241086 1.2760501
0.68228078 0.3121475 1.2776982
0.59734946 0.11689541 1.2844
0.60606283 0.11685793 1.2856984
0.6142422 0.11579438 1.2844343
0.62357563 0.11672053 1.2833014
0.6358071 0.11699176 1.2865973
0.64179736 0.11938647 1.2816533
0.59618407 0.12605628 1.2865974
0.6051051 0.12535426 1.2854565
0.61335039 0.12279862 1.2835073
0.62308884 0.12140474 1.2816533
0.66489947 0.12760188 1.2841253
0.6847986 0.12473325 1.2841253
0.69021225 0.12486195 1.2865973
0.5879432 0.13644071 1.2865973
0.59388566 0.13432136 1.2846197
0.66476351 0.13291559 1.2841253
0.67150563 0.13132539 1.2833014
0.57941544 0.14600986 1.2865973
0.58558458 0.14467224 1.284018
0.59158045 0.14039432 1.2816533
0.57869363 0.15570398 1.2853613
0.58333904 0.15223143 1.2837721
0.57677025 0.16527928 1.2854204
0.58203304 0.16186346 1.2816533
0.57528484 0.17522915 1.2854342
0.57605773 0.18488903 1.283735
0.57587039 0.19440661 1.2836308
0.58203304 0.19764538 1.2816533
0.69397509 0.19538502 1.283631
0.57647884 0.20378211 1.2849494
0.58391583 0.2054396 1.2816533
0.69810593 0.2020041 1.2828892
0.57869983 0.21118383 1.2865973
0.58631676 0.21351856 1.2862171
0.59435445 0.2178092 1.2851142
0.59705156 0.22351895 1.2854986
0.60282457 0.22683196 1.28435
0.60546941 0.23410149 1.2850761
0.60724562 0.24130188 1.2856085
0.613473 0.24708809 1.2834512
0.62022269 0.24774005 1.2816533
0.61603022 0.25441718 1.2857733
0.6222198 0.25547165 1.2841253
0.62711787 0.26409379 1.2850523
0.63312286 0.26703072 1.2816533
0.62981683 0.27025345 1.2865973
0.63562536 0.27506211 1.2855381
0.64253092 0.27911147 1.2833014
0.6382032 0.28462175 1.2865973
0.64471239 0.28557646 1.2839799
0.65371287 0.28885204 1.2816533
0.64701855 0.2949771 1.2865973
0.65528154 0.29499918 1.2843727
0.66079915 0.29544926 1.2816533
0.64781094 0.30167353 1.2865973
0.65548819 0.30395252 1.2858912
0.66372985 0.30536184 1.2825801
0.67366827 0.30817145 1.2816533
0.66419828 0.31478828 1.2850524
0.67174876 0.31096357 1.2816533
0.6862092 0.3140668 1.2816533
0.69380587 0.31456321 1.2865973
0.6684888 0.32301959 1.2865973
0.6721108 0.32301959 1.2816533
0.63706118 0.11503985 1.2915409
0.58688205 0.12789452 1.2935183
0.59165293 0.12537844 1.291541
0.60278469 0.12285274 1.2915409
0.57840437 0.13702628 1.2942872
0.5840351 0.13427292 1.292365
0.66421288 0.13516322 1.2964844
0.57488203 0.14533463 1.2930857
0.56894082 0.1563562 1.2952485
0.57411891 0.15377842 1.2923015
0.56802106 0.16533817 1.2938225
0.57331896 0.1631192 1.291541
0.56669182 0.17533104 1.2924823
0.57211626 0.17634101 1.2915409
0.56593692 0.18533514 1.2930237
0.57259732 0.18571649 1.291541
0.56608003 0.19545983 1.2935181
0.57211626 0.19557273 1.2915409
0.56704259 0.20451516 1.2940125
0.57248175 0.20652455 1.2923648
0.56881404 0.21145149 1.2964844
0.57647353 0.21497259 1.2940125
0.58366203 0.21744886 1.291541
0.58487409 0.22412454 1.2936221
0.59321469 0.22625406 1.291541
0.58880615 0.23131722 1.2964844
0.59473866 0.23364617 1.2921224
0.60290498 0.23668058 1.291541
0.60535651 0.24421151 1.2920902
0.61150634 0.24931654 1.2915409
0.61299181 0.25570604 1.2925296
0.61642796 0.26439378 1.2953434
0.6223821 0.26655802 1.2920353
0.62692219 0.27446836 1.2944485
0.63285178 0.27670661 1.2915409
0.62872082 0.28095779 1.2964844
0.63482082 0.28513756 1.2943215
0.6379689 0.29445112 1.2934424
0.64307463 0.29533735 1.291541
0.63780725 0.30813909 1.2964844
0.64508551 0.30478811 1.2937379
0.65329742 0.30916017 1.2915409
0.64611268 0.31217521 1.2948366
0.65514421 0.31433314 1.2930239
0.66124493 0.31698653 1.2915409
0.65762305 0.32060635 1.2964844
0.66365957 0.32181299 1.2927767
0.57828224 0.12842907 1.3053821
0.5840829 0.12593806 1.3022926
0.67947501 0.12633602 1.3053821
0.57486641 0.13494541 1.3027653
0.58092415 0.13157094 1.300439
0.65514952 0.13689154 1.3053821
0.66058987 0.13553226 1.300439
0.56881404 0.14972562 1.300439
0.57200426 0.14419475 1.3034048
0.65227419 0.14212096 1.3053821
0.56739008 0.15552367 1.3034048
0.57072222 0.15087029 1.3053821
0.55883193 0.16973697 1.3053821
0.56410205 0.16468178 1.3035609
0.55814594 0.17597672 1.3053821
0.56256336 0.17512435 1.300439
0.55791825 0.18490572 1.3043935
0.5614531 0.1858701 1.300439
0.5567522 0.19537303 1.305382
0.56264454 0.19476458 1.3026359
0.55709785 0.20456178 1.3053821
0.56252021 0.20487575 1.3022364
0.55761623 0.21104485 1.3053821
0.56472665 0.21441765 1.3029106
0.57325441 0.21750304 1.300439
0.56774664 0.22157431 1.3053821
0.57567263 0.22458538 1.3032635
0.58246869 0.2282819 1.3020867
0.58536482 0.232345 1.3031851
0.60867339 0.24992287 1.3029106
0.60988903 0.25478265 1.3053821
0.61232036 0.25599757 1.300439
0.60882741 0.26402643 1.3053821
0.61260849 0.2648131 1.3031851
0.61672515 0.27415693 1.3035285
0.62288833 0.277161 1.3020867
0.61796325 0.28105554 1.3053821
0.62552488 0.28440502 1.3039697
0.63177878 0.28703836 1.3029106
0.6293394 0.29123074 1.3053821
0.63399976 0.29471678 1.3024986
0.63684636 0.3042177 1.3029104
0.64245814 0.30728441 1.3034049
0.64536214 0.31427792 1.3027204
0.6535852 0.31795886 1.300439
0.65441489 0.32118964 1.3004391
0.57374966 0.13696279 1.3103249
0.56689537 0.14640731 1.3152677
0.57053244 0.14228681 1.3103249
0.55987602 0.15803999 1.3172445
0.56446993 0.15419973 1.3145261
0.55642426 0.16663302 1.3154653
0.56115383 0.16347681 1.3103249
0.55472928 0.17468016 1.3147993
0.54636133 0.18873729 1.3192215
0.55301696 0.18509606 1.3137203
0.54673332 0.19538899 1.3159815
0.55210227 0.19516353 1.3113134
0.54601407 0.20436871 1.3168375
0.55276507 0.20628735 1.3107367
0.5477528 0.21207809 1.3184308
0.55398411 0.21545805 1.3139025
0.56177354 0.21835288 1.3103249
0.55548429 0.22401574 1.3155313
0.56419921 0.22558708 1.3112518
0.57250941 0.22846785 1.312302
0.55866045 0.23136009 1.3172445
0.56570059 0.2346997 1.3177837
0.57621539 0.23447345 1.3141891
0.58281106 0.23544236 1.3103249
0.57866806 0.24216476 1.3174422
0.58199102 0.24030876 1.3103249
0.60767913 0.25644976 1.3103249
0.60791022 0.26496732 1.3103248
0.60908157 0.2728442 1.3130081
0.6130113 0.27646181 1.3127962
0.61730397 0.28513357 1.3157326
0.62392622 0.28892499 1.3103249
0.61914146 0.29144031 1.3172445
0.62536383 0.2955915 1.3147184
0.63355303 0.29810971 1.3103249
0.62897485 0.30259323 1.3176399
0.63523191 0.30285725 1.3103248
0.64149815 0.30941367 1.3103249
0.63905764 0.31185281 1.3103249
0.64149004 0.31122014 1.3103249
0.55914372 0.1468595 1.3291057
0.56411034 0.14800774 1.327129
0.57165676 0.14954336 1.3291057
0.55804276 0.15661234 1.3280513
0.56253672 0.15234888 1.327788
0.54922974 0.16826768 1.3291057
0.55479747 0.16401017 1.3269972
0.54751289 0.17511138 1.3283869
0.55088866 0.17602277 1.3251524
0.54546869 0.18489413 1.3274113
0.55006588 0.18465689 1.3251523
0.54273164 0.19407329 1.327129
0.53933781 0.20500533 1.3291057
0.54146975 0.20500669 1.3251523
0.53727937 0.21729457 1.3276231
0.54336613 0.21584539 1.3251523
0.55006588 0.21795987 1.3251523
0.53719586 0.22547543 1.328315
0.54389507 0.22536054 1.3251522
0.55160856 0.22628564 1.3251523
0.53834754 0.23420198 1.3291057
0.54491371 0.23567206 1.3261405
0.55459124 0.23563926 1.325152
0.56487584 0.23810613 1.3251523
0.57474917 0.23892842 1.3251523
0.54702294 0.24397846 1.3291057
0.55570269 0.24532805 1.3266085
0.56548071 0.24536175 1.3254346
0.57432073 0.24551128 1.3267337
0.55916607 0.25314781 1.3291057
0.56412029 0.25258231 1.3291057
0.57408714 0.25190511 1.3291057
0.61360985 0.28294548 1.3251523
0.62411565 0.30060062 1.3251523
0.5565449 0.1560884 1.3350362
0.5632422 0.15406209 1.335036
0.54921871 0.166159 1.335036
0.55294633 0.16488968 1.335601
0.54669499 0.17454466 1.3370128
0.54361075 0.18513224 1.3372952
0.53755194 0.196152 1.3389895
0.54131782 0.19503105 1.3365186
0.53750539 0.20539232 1.3371649
0.53597993 0.2144094 1.3361658
0.53443664 0.2253906 1.3367932
0.53541249 0.2351165 1.3365566
0.53811318 0.2438111 1.3376716
0.54412025 0.24650735 1.3350362
0.54499 0.25249696 1.3376715
0.55453414 0.25568235 1.336354
0.56509674 0.25713664 1.3350362
0.57415771 0.25760621 1.336354
0.55483574 0.26284745 1.3389894
0.56520867 0.26191849 1.338001
0.57376862 0.26254445 1.3389895
0.55894482 0.15843657 1.344919
0.55366582 0.16578974 1.346772
0.54575199 0.17570524 1.3473896
0.55032372 0.17052799 1.344919
0.53801334 0.1890257 1.3473895
0.54190111 0.18495643 1.3469779
0.53545725 0.19577667 1.3478014
0.52814615 0.20789561 1.3498601
0.53320396 0.20484541 1.3476982
0.52606529 0.21416166 1.3498601
0.53206456 0.21507955 1.3465661
0.52558118 0.22497828 1.3498602
0.53166246 0.22536616 1.3449191
0.52550155 0.23547485 1.3487198
0.53156126 0.23427624 1.3461543
0.52471972 0.24364176 1.3491541
0.53243101 0.24449575 1.345978
0.52625871 0.2544969 1.3498601
0.53434604 0.25422698 1.3464793
0.54464471 0.25695723 1.3449191
0.55080283 0.25628471 1.344919
0.52749848 0.26593703 1.3498601
0.5339787 0.26477131 1.3498598
0.54388446 0.26408979 1.3464013
0.55299503 0.26536134 1.3449191
0.56426913 0.26567435 1.3449191
0.57476521 0.26695484 1.3465661
0.52740163 0.27281204 1.3498601
0.53397876 0.2748239 1.3498598
0.54428697 0.27432239 1.3487619
0.55432826 0.27432254 1.3461543
0.56412548 0.27476844 1.3483397
0.57231963 0.27326885 1.3478837
0.53495705 0.28162429 1.3498601
0.54457605 0.28218383 1.3498601
0.5535568 0.28218383 1.3498601
0.55502075 0.14873961 1.3597418
0.56351608 0.14813676 1.3597417
0.55701047 0.15476759 1.3587534
0.56427383 0.15180735 1.3572714
0.54877526 0.16860022 1.3572714
0.55335158 0.16529703 1.3587536
0.54373908 0.17536564 1.3569968
0.53851742 0.18716937 1.3580949
0.5417105 0.18191037 1.3597417
0.52933991 0.19926715 1.3572714
0.53446722 0.1938089 1.3566537
0.52702999 0.20541219 1.3576831
0.52232093 0.21611838 1.3567774
0.51851422 0.22590265 1.3572714
0.52238113 0.22426188 1.3556246
0.51778114 0.23500267 1.3569185
0.52307302 0.23371156 1.3548011
0.51598966 0.24545339 1.3564478
0.52290475 0.24850968 1.3548011
0.51447666 0.25458539 1.3574013
0.52307302 0.25590873 1.3548011
0.516451 0.2644659 1.3591238
0.52405852 0.26467437 1.355507
0.51764572 0.27051845 1.3597417
0.52533072 0.27643606 1.3570813
0.5700171 0.27961937 1.3548011
0.52490509 0.28475508 1.3568354
0.53546274 0.28634587 1.3552952
0.54528314 0.2866821 1.3548011
0.55529451 0.28760701 1.3548011
0.5652774 0.28524739 1.355899
0.57386941 0.2858305 1.3577654
0.51891232 0.29203758 1.3597417
0.52490389 0.29358134 1.3593615
0.53586572 0.29357374 1.3593297
0.54565477 0.29453418 1.3587534
0.55472797 0.2946423 1.3592474
0.56666964 0.29263836 1.3597417
0.55640244 0.13937971 1.3646822
0.56445336 0.13853274 1.3646822
0.57165676 0.13937971 1.3646822
0.55563974 0.14395335 1.3646822
0.56580931 0.14395337 1.3646822
0.57165682 0.14446154 1.3646822
0.5479278 0.15589565 1.3646822
0.55216515 0.15589565 1.3646822
0.54832327 0.1648342 1.3646823
0.55258882 0.16224793 1.3646822
0.53860563 0.17622295 1.3646822
0.54275417 0.17363344 1.3646822
0.53733444 0.1838457 1.3646822
0.54114807 0.18257526 1.3646822
0.50319797 0.19812495 1.3646822
0.53309429 0.19443311 1.3646823
0.52504623 0.20332603 1.3646822
0.51699531 0.21687756 1.3646822
0.52118635 0.21364486 1.3646822
0.51600444 0.22462365 1.3646822
0.52080888 0.22068894 1.3646822
0.51445293 0.23466396 1.3646822
0.51143306 0.2454322 1.3646822
0.50737804 0.25526708 1.3646822
0.51063931 0.25245035 1.3646822
0.50682575 0.26515493 1.3646822
0.51191056 0.26642543 1.3646822
0.50549626 0.27636701 1.3646822
0.51419866 0.27557269 1.3646821
0.52080888 0.27658904 1.3646822
0.50458777 0.28377604 1.3646822
0.51445287 0.28548226 1.364682
0.52080888 0.28421181 1.3646822
0.50809693 0.29183453 1.3646822
0.51419067 0.29557368 1.364682
0.52462244 0.29945725 1.3646822
0.53479207 0.29945725 1.3646822
0.54114807 0.29945725 1.3646822
0.55809736 0.29861027 1.3646822
0.56450933 0.29743534 1.3646822
0.57500613 0.29438585 1.3646822
0.51557142 0.30202001 1.3646822
0.52548009 0.30376768 1.3646822
0.53448075 0.30483779 1.3646822
0.5452159 0.30555546 1.3646821
0.55441147 0.30412355 1.3646822
0.56227183 0.30457935 1.3646822
0.53636307 0.31199476 1.3646822
0.54453421 0.31250516 1.3646822
0.55354494 0.31305423 1.3646822
0.57287812 0.12978072 1.3706106
0.58030599 0.1291662 1.3755506
0.5588339 0.13616076 1.3706106
0.56542128 0.13442235 1.3711045
0.57447785 0.13456814 1.3725865
0.57879949 0.14049636 1.3755506
0.54770708 0.15907392 1.373904
0.55240214 0.15710279 1.3755506
0.53771448 0.16806033 1.3755506
0.54467511 0.16500835 1.3738071
0.51601177 0.17891543 1.3718456
0.52526009 0.178507 1.3735746
0.53593224 0.17544694 1.3747274
0.54161012 0.17081921 1.3706106
0.50767016 0.186097 1.3713163
0.51566869 0.18573923 1.371434
0.52574193 0.18559012 1.3743155
0.53456956 0.18517648 1.3738071
0.4993538 0.19812495 1.3755506
0.50539207 0.19438693 1.3706105
0.51588231 0.19443095 1.3751014
0.52638519 0.19586234 1.3751706
0.53138489 0.19361195 1.372463
0.50560492 0.204221 1.3730805
0.51747668 0.20284243 1.3755506
0.52413321 0.20447929 1.3735746
0.51689333 0.21502955 1.3728559
0.52132046 0.21100241 1.3730806
0.50960487 0.22757956 1.3755506
0.51313722 0.22531132 1.3715985
0.50760514 0.23496617 1.3742032
0.51159406 0.23568943 1.3706105
0.50566381 0.24530533 1.3736981
0.51095569 0.24398349 1.3706106
0.49832869 0.25626579 1.3755506
0.50312269 0.25552154 1.372022
0.49605885 0.26471797 1.3755506
0.50265676 0.26503766 1.3706105
0.49540514 0.27501959 1.3742334
0.50240147 0.27320406 1.3706105
0.49463153 0.28470534 1.3724631
0.50316751 0.28749543 1.3706106
0.49480751 0.29463032 1.372916
0.50393361 0.29438588 1.3706106
0.5754317 0.29821387 1.3706106
0.49711663 0.30219477 1.3755506
0.50635076 0.30349562 1.3743155
0.51413661 0.3066293 1.3718455
0.52359551 0.30791155 1.3706106
0.5588339 0.30842194 1.3706106
0.56674981 0.30535948 1.3706105
0.57345635 0.30377668 1.3706105
0.51567745 0.31389689 1.3751014
0.52470386 0.31370986 1.3719578
0.53292727 0.31636602 1.3714337
0.54344821 0.31746146 1.371434
0.55588943 0.31494302 1.371434
0.56462562 0.31134981 1.3706106
0.57358706 0.31345451 1.3706106
0.52725738 0.32117164 1.3755506
0.53638989 0.32368839 1.3755506
0.5435586 0.32374403 1.3755506
0.5529961 0.32117164 1.3755506
0.56015158 0.32232693 1.3755506
0.57771361 0.1291662 1.3814784
0.54707813 0.15788898 1.3827133
0.53642452 0.16856547 1.3827133
0.54142016 0.16543853 1.3864181
0.52886039 0.17464942 1.3814785
0.53512049 0.17453977 1.3839483
0.51623833 0.19711801 1.3814784
0.49994189 0.20689262 1.3864181
0.50396842 0.20679912 1.3851833
0.51593596 0.20598702 1.3828256
0.52140456 0.20357208 1.3814784
0.50771904 0.21207438 1.3864181
0.51430809 0.21490869 1.3846542
0.50719422 0.22852628 1.3847717
0.51212889 0.22380078 1.3839483
0.49729532 0.23885433 1.3864181
0.50375605 0.23548165 1.3841385
0.49580553 0.24487475 1.3859692
0.50154823 0.24465109 1.3833308
0.49529389 0.25452155 1.3843842
0.50151861 0.25171754 1.3814784
0.48615578 0.26516223 1.3845183
0.49181005 0.26431984 1.3831249
0.48592249 0.27462727 1.3854301
0.49186659 0.27422583 1.3814784
0.4684504 0.28747493 1.3864181
0.47232509 0.28747493 1.3864181
0.48615569 0.28412229 1.3853599
0.49105993 0.28485093 1.3824663
0.48558691 0.29474312 1.3852557
0.49122313 0.29416171 1.3814784
0.48497647 0.30572808 1.3864182
0.49323621 0.3056865 1.3821371
0.50460732 0.30779532 1.3814784
0.48420754 0.31561473 1.3864181
0.49430594 0.31514958 1.3842229
0.50524533 0.31535295 1.3829315
0.51475435 0.31882849 1.3814784
0.52210963 0.31859928 1.3814784
0.56599712 0.31798667 1.3814785
0.57448637 0.31688181 1.3839483
0.58030599 0.31830049 1.3864181
0.48524076 0.32232696 1.3864181
0.49479827 0.32439223 1.3864182
0.50461423 0.32490852 1.3864182
0.51494676 0.32490855 1.3851833
0.52457488 0.32530937 1.3844422
0.53265268 0.32575512 1.3834543
0.54775256 0.32645756 1.3834543
0.55369371 0.32619935 1.3839482
0.56647247 0.32326347 1.3864181
0.5744381 0.32352898 1.3814785
0.58030599 0.3221868 1.3864181
0.50848889 0.33007181 1.3864181
0.51609176 0.33185741 1.3864182
0.52476835 0.33407727 1.3847716
0.53496599 0.33286864 1.3855948
0.54465961 0.33258778 1.3855951
0.5517897 0.33125487 1.3864181
0.52276647 0.34187198 1.3864182
0.54091471 0.177294 1.3913574
0.49864569 0.2094835 1.3913574
0.50383043 0.2094835 1.3913574
0.49647158 0.21518765 1.3917375
0.50527 0.21580045 1.3943208
0.51213402 0.21673198 1.3913574
0.48563212 0.22558248 1.3928772
0.49538496 0.22498085 1.3936623
0.50540549 0.22419263 1.394321
0.51122272 0.22153504 1.3913574
0.47977394 0.2303836 1.3962965
0.48571897 0.23396543 1.3962965
0.49513125 0.23419814 1.3921373
0.50253427 0.23150599 1.3913574
0.46555901 0.24734907 1.3943208
0.47093433 0.2443545 1.3962965
0.48784646 0.24489538 1.3934155
0.49216473 0.24446037 1.3913574
0.45592397 0.25596452 1.3921807
0.46462369 0.25430357 1.3962965
0.48724577 0.25547394 1.3932571
0.49216473 0.25352848 1.3913574
0.45586905 0.2640999 1.3962965
0.46337226 0.26074293 1.3962965
0.47920281 0.26907375 1.3913574
0.48246002 0.26470244 1.3941014
0.47753412 0.27574164 1.3934155
0.48179519 0.27555096 1.3913574
0.4657304 0.287622 1.3933331
0.4753516 0.28438097 1.3920161
0.48231369 0.28669176 1.3913574
0.46645811 0.2936193 1.3941014
0.47520423 0.29542711 1.3917375
0.48179519 0.29239169 1.3913574
0.47677606 0.304326 1.3936623
0.48231363 0.30379155 1.3913574
0.47835144 0.31470209 1.393827
0.4788467 0.32342434 1.3933331
0.48490605 0.32633224 1.3913574
0.49346092 0.328664 1.3913574
0.55956686 0.32607311 1.3913574
0.56475163 0.32607311 1.3913574
0.48568374 0.33125487 1.3913574
0.49651077 0.33433232 1.3936025
0.50478667 0.33422503 1.3918513
0.51455355 0.33620113 1.3913574
0.54919732 0.33384576 1.3913574
0.47831258 0.34673867 1.3962965
0.48091424 0.34673867 1.3962965
0.50840217 0.34208903 1.3962965
0.51529688 0.34429777 1.3930038
0.50387001 0.22418562 1.4022231
0.47662529 0.23589051 1.4057791
0.48429805 0.23790149 1.40307
0.46566808 0.24698609 1.4081496
0.47533864 0.24397813 1.4062783
0.4835237 0.24496792 1.4040012
0.45776871 0.25488088 1.4081496
0.46801424 0.2543081 1.4022231
0.47613984 0.25476092 1.4022233
0.4833084 0.25439319 1.4022233
0.45538062 0.26565772 1.4061741
0.46495843 0.26557088 1.403211
0.47611648 0.26549873 1.4077545
0.48087773 0.26387641 1.4022231
0.45757025 0.27353859 1.4081496
0.46519464 0.27378008 1.4081496
0.47457895 0.27456287 1.4048903
0.46568736 0.28446931 1.4060332
0.47190231 0.28151923 1.4022231
0.46377689 0.29637313 1.4041989
0.45513558 0.30751276 1.4081496
0.46504685 0.30542049 1.4067552
0.47351879 0.30774671 1.4037048
0.45588097 0.3119927 1.4081496
0.46479368 0.31544104 1.4081496
0.47430736 0.3154994 1.4040469
0.46807656 0.32429427 1.4081496
0.47448421 0.32473221 1.4034088
0.4803552 0.32863513 1.4022231
0.46927845 0.33003256 1.4081496
0.47627544 0.33382043 1.4081496
0.48322329 0.33468923 1.4022231
0.49864447 0.33908007 1.4022231
0.47977394 0.34838897 1.4081496
0.48490366 0.34391093 1.4059947
0.49354929 0.34336278 1.4061742
0.50499588 0.34419733 1.4037049
0.47977394 0.35101131 1.4081496
0.48756137 0.35937363 1.4022231
0.47422907 0.23945288 1.4190139
0.46794355 0.24757072 1.4190139
0.47352746 0.24580261 1.4190139
0.45689595 0.25718251 1.4160509
0.45480949 0.26543444 1.4160509
0.4563112 0.27605629 1.4167917
0.46435151 0.27856523 1.413088
0.42946783 0.28867596 1.4190139
0.4336392 0.28721228 1.4190139
0.44140857 0.28867596 1.4190139
0.45587176 0.28552374 1.4155571
0.46171841 0.28251261 1.413088
0.4286623 0.29500186 1.4190139
0.43345127 0.2933909 1.4190139
0.44526592 0.29280168 1.4190139
0.45410025 0.29526356 1.4150633
0.46040186 0.2969864 1.4130881
0.44901162 0.30873823 1.4170387
0.45318362 0.30381083 1.4155571
0.46040183 0.30356538 1.413088
0.44871011 0.31433734 1.4160509
0.45413539 0.31738561 1.4130881
0.44858277 0.32126158 1.4190139
0.45431933 0.32550836 1.4153925
0.46303496 0.32593393 1.413088
0.4582231 0.33411932 1.4190139
0.46490765 0.33486909 1.4155571
0.47347361 0.33741504 1.4130881
0.46794355 0.34171498 1.4190139
0.47572303 0.34346554 1.4175324
0.48122177 0.3454648 1.413088
0.47820988 0.35109344 1.4190139
0.48085412 0.35241479 1.4190139
0.47413033 0.24525842 1.4239519
0.4560028 0.2595045 1.4239519
0.46130979 0.25420061 1.4239519
0.47443175 0.25036886 1.4239519
0.4540875 0.26523528 1.4239519
0.45388004 0.2748858 1.423952
0.42681435 0.28867596 1.4239519
0.43703109 0.28507319 1.4239519
0.44480774 0.28563204 1.423952
0.45163277 0.28387496 1.423952
0.42627519 0.29687116 1.423952
0.43477485 0.29839978 1.4239519
0.44444117 0.29587412 1.423952
0.45069581 0.29132792 1.4239519
0.42756605 0.30341062 1.4239519
0.43636537 0.30287763 1.423952
0.44512349 0.30511805 1.423952
0.44289991 0.31496912 1.423952
0.44592792 0.32387421 1.423952
0.44772375 0.33129713 1.4239519
0.45473832 0.33612102 1.423952
0.4576298 0.34315968 1.4239519
0.46455002 0.34433019 1.423952
0.47413504 0.3470189 1.423952
0.47809362 0.35495177 1.423952
0.48222846 0.35937363 1.4239519
0.47888258 0.36354703 1.4239519
0.48156017 0.36354703 1.4239519
0.47263312 0.24317858 1.4367895
0.45562956 0.2582173 1.4344195
0.4632619 0.25365222 1.4350966
0.44668943 0.26699415 1.4367895
0.45284235 0.26481566 1.4334978
0.43775719 0.27681467 1.4367895
0.44449434 0.27548015 1.4346985
0.45179868 0.27557045 1.4308645
0.42756337 0.28623784 1.4338269
0.43424442 0.2824862 1.433019
0.44402269 0.2817162 1.4308646
0.4252063 0.29477078 1.4342502
0.42533174 0.30543783 1.4328394
0.43556544 0.30740798 1.4308645
0.4435648 0.30740798 1.4308646
0.42661569 0.31400129 1.4353082
0.43527845 0.31524387 1.4308645
0.42703766 0.32502794 1.4367895
0.43468353 0.32498863 1.4330864
0.4435648 0.32606232 1.4308646
0.42948875 0.33258098 1.4367895
0.43628624 0.33378151 1.4358779
0.44433171 0.3355304 1.4318521
0.45111978 0.33716607 1.4308647
0.43754923 0.34063676 1.4367895
0.44570017 0.34476718 1.435802
0.45356405 0.34471664 1.4308646
0.46489644 0.34871399 1.4308646
0.47156262 0.34871399 1.4308646
0.44839275 0.35145855 1.4348145
0.45419237 0.3535144 1.4328395
0.46494013 0.35583794 1.4329556
0.4739624 0.35617575 1.4308645
0.45823032 0.36203852 1.4308646
0.46526045 0.36309326 1.4308645
0.47311008 0.36342967 1.4308647
0.46633792 0.2476725 1.4476509
0.47232193 0.2446229 1.4446888
0.44745237 0.25845796 1.4476509
0.45485646 0.25669575 1.4442657
0.46466887 0.25154334 1.4446888
0.47173381 0.25036886 1.4417267
0.43868408 0.26722115 1.4461699
0.44419175 0.26373473 1.443504
0.45098338 0.26007888 1.4417267
0.43471768 0.27508098 1.4435496
0.42644024 0.2845774 1.4454967
0.43126476 0.28002891 1.4417267
0.41820514 0.29515833 1.4476509
0.42287871 0.2946547 1.4466636
0.41581005 0.3051241 1.4456762
0.4212372 0.30544636 1.4417267
0.41545576 0.31537244 1.4476509
0.42170694 0.31570846 1.442385
0.41678643 0.32179412 1.4476509
0.42342064 0.32573041 1.4464661
0.42735094 0.33486217 1.4446888
0.43239188 0.33797616 1.4417267
0.42578489 0.34551749 1.4417267
0.43414751 0.34417179 1.4450179
0.44161218 0.34815344 1.4417267
0.42801628 0.3502996 1.4476509
0.44478711 0.35365653 1.4456762
0.465271 0.23981357 1.4580178
0.47153881 0.23883806 1.453575
0.4592981 0.24835306 1.4594988
0.46469054 0.24513102 1.456537
0.47153881 0.24155663 1.453575
0.44614437 0.25869519 1.4565369
0.45597097 0.25484371 1.4581823
0.46103424 0.25230238 1.453575
0.42846966 0.26783618 1.4594988
0.43548703 0.26552686 1.4568062
0.44170719 0.26178762 1.4559445
0.41566077 0.27762786 1.4594986
0.42545053 0.27573231 1.4575243
0.43198031 0.27324444 1.4545624
0.39872146 0.28764609 1.4594988
0.405247 0.28497887 1.4594988
0.41546801 0.28543764 1.4558789
0.42355904 0.28388956 1.453575
0.39809453 0.29185024 1.4594988
0.40460199 0.29476637 1.4594989
0.4129352 0.29437438 1.4552675
0.39890477 0.30334276 1.4594988
0.40536273 0.30562633 1.4583882
0.41238177 0.3026309 1.4544214
0.40475124 0.31477842 1.4583881
0.41136831 0.31502545 1.453575
0.39997533 0.32027176 1.4594988
0.40648636 0.32455429 1.4583139
0.41438803 0.32593569 1.4539701
0.41605303 0.33512172 1.4575242
0.42331186 0.33669198 1.453575
0.41798472 0.34284258 1.4594988
0.4234345 0.34184912 1.4547598
0.4384588 0.34886882 1.453575
0.42708531 0.35235378 1.4559445
0.43520525 0.35224146 1.453575
0.44025698 0.35437745 1.453575
0.45694369 0.24867515 1.4654222
0.46137378 0.24403198 1.4654222
0.4379583 0.25892133 1.4654222
0.44462335 0.25779629 1.4654222
0.45378911 0.25376099 1.4654222
0.42566761 0.26893014 1.4654222
0.43386137 0.26347077 1.4654222
0.40559095 0.27831182 1.4654222
0.4140597 0.27529937 1.4654222
0.42157069 0.27256972 1.4654222
0.39997533 0.28464159 1.4654222
0.40313464 0.28144115 1.4654222
0.39671612 0.29768273 1.4654222
0.40108615 0.29986647 1.4654222
0.39630646 0.30600828 1.4654222
0.39767206 0.31283244 1.4654222
0.40546006 0.3257533 1.4654222
0.4090293 0.33328179 1.4654222
0.41221446 0.33626172 1.4654222
0.4147425 0.34081164 1.4654222
0.42704228 0.35467935 1.4654222
0.45553562 0.24719772 1.4743066
0.43560517 0.25588629 1.4759015
0.44500631 0.25309682 1.4722565
0.45207638 0.25093758 1.4713453
0.40865934 0.26878437 1.4772681
0.41578954 0.2681281 1.4764221
0.42557323 0.26525301 1.4752939
0.43213543 0.26292598 1.4725296
0.40549535 0.27546871 1.4745758
0.41465572 0.27306369 1.4728259
0.42191434 0.27093768 1.4713452
0.39558321 0.28491589 1.4756888
0.40159574 0.28029099 1.4772681
0.39414674 0.29450381 1.4749901
0.39486077 0.30543822 1.4765277
0.39666361 0.31543061 1.4728258
0.40443182 0.32805997 1.4733194
0.4071027 0.33257681 1.4772681
0.41219765 0.33887631 1.4743066
0.41495761 0.34301063 1.4743066
0.42008495 0.34796658 1.4772681
0.42491835 0.35337341 1.4752939
0.44774947 0.24843235 1.4841776
0.42700109 0.25756067 1.4872621
0.43207294 0.25442284 1.4841776
0.40542257 0.2668826 1.4872621
0.41447943 0.26302406 1.4858227
0.42246401 0.26250473 1.4855877
0.39588556 0.27637365 1.486835
0.40347424 0.27278599 1.4848827
0.37873617 0.2861695 1.4884079
0.38582382 0.28534198 1.4870349
0.39285514 0.28192461 1.4858227
0.37523878 0.29569361 1.4874678
0.38550434 0.29543462 1.4841776
0.37545544 0.30431476 1.4875944
0.38571781 0.30390006 1.484589
0.39242044 0.30511159 1.4841776
0.3874504 0.31207734 1.487879
0.39412624 0.31292102 1.4850001
0.39795333 0.32031819 1.4841776
0.40527952 0.32675937 1.4841776
0.40659261 0.33373073 1.4854114
0.41425902 0.34507605 1.4866452
0.41926914 0.35192606 1.4891127
0.42605481 0.35617357 1.4858227
0.41926914 0.25964814 1.4960215
0.42345911 0.25739542 1.4960215
0.43046087 0.25405556 1.4960215
0.39902234 0.26898709 1.4960215
0.40533274 0.26436302 1.4960215
0.38466927 0.27848306 1.4960215
0.39483243 0.27317461 1.4960215
0.36890641 0.28621301 1.4960215
0.37426403 0.28537717 1.4960215
0.36890641 0.29460192 1.4960215
0.3714039 0.29316252 1.4960216
0.36890641 0.30159265 1.4960215
0.3773002 0.31277785 1.4960215
0.38487729 0.31480607 1.4960215
0.39408779 0.31837046 1.4960215
0.39902234 0.32342243 1.4960215
0.40321463 0.32761687 1.4960215
0.38784683 0.33877891 1.4960215
0.39268881 0.33794457 1.4960215
0.37590122 0.34912977 1.4960215
0.38471028 0.34477293 1.4960215
0.39439866 0.34602275 1.4960214
0.41274065 0.34446928 1.4960216
0.35646263 0.35541117 1.4960215
0.36240888 0.35523319 1.4960215
0.37465733 0.35215503 1.4960215
0.38483885 0.35393864 1.4960215
0.39688575 0.35472238 1.4960214
0.40248159 0.35751867 1.4960215
0.41647121 0.35192606 1.4960215
0.42206708 0.35472235 1.4960215
0.35482261 0.36335972 1.4960214
0.3630701 0.36622652 1.4960215
0.37884036 0.36609024 1.4960215
0.38451228 0.36375508 1.4960215
0.39608634 0.36151335 1.4960215
0.40248159 0.36031497 1.4960215
0.42766294 0.36031497 1.4960215
0.36509109 0.3745507 1.4960215
0.37554464 0.37584496 1.4960215
0.38302338 0.37445137 1.4960214
0.37465739 0.38420612 1.4960215
0.38162902 0.381419 1.4960215
0.37310332 0.39107427 1.4960215
0.39823177 0.25863671 1.5078644
0.40153527 0.25804174 1.5078644
0.41618174 0.25911269 1.5032589
0.42395166 0.25645024 1.5009562
0.37904814 0.26927876 1.5078644
0.3846699 0.26787412 1.5078644
0.39527655 0.26528198 1.5044101
0.4047499 0.26193339 1.5039169
0.41277882 0.260851 1.5009562
0.36639261 0.27723619 1.5055617
0.37479284 0.27531716 1.5037193
0.3843973 0.27422607 1.5015844
0.39164981 0.27276206 1.5009562
0.35783204 0.28650945 1.5078644
0.36450538 0.28394768 1.5034233
0.34973365 0.29874259 1.5078644
0.3559441 0.29498217 1.5068015
0.36358887 0.29482722 1.5009563
0.33969563 0.30579907 1.5078644
0.34601802 0.30532652 1.5072885
0.35442334 0.30516654 1.5040262
0.36442974 0.30606672 1.5009562
0.372637 0.30904946 1.5009563
0.33848441 0.31581423 1.5078642
0.34611812 0.31562003 1.5041798
0.35491672 0.31557414 1.5009563
0.36424702 0.31639066 1.5032589
0.37413186 0.31702685 1.5059803
0.38304341 0.31784189 1.5009562
0.39408779 0.31837046 1.5009562
0.33723611 0.32581499 1.5078642
0.34654927 0.32543227 1.5025504
0.35511437 0.32538924 1.5009563
0.36499366 0.32546386 1.5009563
0.3743622 0.32551146 1.5044101
0.38429505 0.32536122 1.5009561
0.3949416 0.3260282 1.5009562
0.40200841 0.32750976 1.5009562
0.32845208 0.3381055 1.5078644
0.33608165 0.33569759 1.5078642
0.34513342 0.3350203 1.5030818
0.35544723 0.33560717 1.5026832
0.36464632 0.33489984 1.502019
0.37365499 0.33466396 1.502019
0.38373548 0.334589 1.5009564
0.3944875 0.3343493 1.5009563
0.40397093 0.33620679 1.5023379
0.32895696 0.34565485 1.5078644
0.33565801 0.34570023 1.5039169
0.34522268 0.34503394 1.5009561
0.35491675 0.3449353 1.5009563
0.3647095 0.3449353 1.5009561
0.37422249 0.34409642 1.5009564
0.38149709 0.34633347 1.5009562
0.39912412 0.34409642 1.5009562
0.40527949 0.3449353 1.5009563
0.41180798 0.34819767 1.5009563
0.32723436 0.35516319 1.5078642
0.33485487 0.35533011 1.5058905
0.34512401 0.35472235 1.5009563
0.35211882 0.3533242 1.5009562
0.36750743 0.35472235 1.5009563
0.3733831 0.35584089 1.5009562
0.40586555 0.3545782 1.5009563
0.41452292 0.35610223 1.5026833
0.4228276 0.35805854 1.5044103
0.32729691 0.36507595 1.5078644
0.33547932 0.36479342 1.5078642
0.34550911 0.36434284 1.5009562
0.35491675 0.3687039 1.5009563
0.36680794 0.3645094 1.5009563
0.37450227 0.3645094 1.5009563
0.38289607 0.36217916 1.5009563
0.39502046 0.36683968 1.5009563
0.40527955 0.36450943 1.5009564
0.41537824 0.36460793 1.5055616
0.425107 0.36472192 1.5061374
0.43245506 0.36479342 1.5009562
0.44071394 0.36935937 1.5078644
0.32850343 0.37337941 1.5078644
0.33547929 0.3746258 1.5078641
0.34614581 0.37541023 1.5029299
0.35491675 0.3756946 1.5009563
0.36387011 0.37821129 1.5009562
0.3739427 0.37261868 1.5009562
0.38849193 0.37569463 1.5009562
0.39548674 0.3756946 1.5009561
0.4074381 0.37546858 1.5016472
0.41558975 0.3746258 1.5078642
0.42345876 0.37576002 1.5078642
0.43360662 0.37949845 1.5078644
0.33614033 0.38452405 1.5078642
0.34575343 0.38406658 1.5034683
0.35491672 0.38548169 1.5009563
0.36470956 0.38548169 1.5009563
0.38604373 0.38583121 1.5009563
0.39548677 0.38548169 1.5009563
0.40621826 0.3849667 1.5009563
0.41511828 0.38484025 1.5044105
0.42450032 0.38407111 1.5037197
0.43162543 0.38058665 1.5078644
0.33765826 0.39168167 1.5078644
0.34579125 0.39371172 1.5071734
0.35445178 0.39484495 1.5041445
0.36529028 0.39458349 1.5009562
0.37478206 0.39610761 1.5009564
0.38420179 0.39498913 1.5009562
0.39548671 0.39526871 1.5009561
0.4049997 0.3944298 1.5009564
0.41549918 0.39434314 1.5009563
0.42214847 0.39335418 1.5009563
0.34792039 0.40270168 1.5078644
0.35567421 0.40360215 1.5078642
0.36489755 0.40544993 1.5067129
0.3748318 0.40693223 1.504986
0.384951 0.4063704 1.5009564
0.39476478 0.40642938 1.5025504
0.40650839 0.40628394 1.5057387
0.41533419 0.40514454 1.5040962
0.42121151 0.40271837 1.5009562
0.32483807 0.41696531 1.5049037
0.33531898 0.41751257 1.5078644
0.36385292 0.41163096 1.5078644
0.38589036 0.41593635 1.5078644
0.39480802 0.4156782 1.5078642
0.40514928 0.41375473 1.5078644
0.41418427 0.41255075 1.5078644
0.32330877 0.42281941 1.5015844
0.33553153 0.42320335 1.5026832
0.34463111 0.42503548 1.5040962
0.38926762 0.4215087 1.5078644
0.39329976 0.42265797 1.5078644
0.38926762 0.25923169 1.5147719
0.39350337 0.25923169 1.5147719
0.37656027 0.26769829 1.5147719
0.38548329 0.26464662 1.5147719
0.39350337 0.26205388 1.5147719
0.36568239 0.2757763 1.5147719
0.3738355 0.27187517 1.5147719
0.34973365 0.28745377 1.5147719
0.35690621 0.28386724 1.5147719
0.33843824 0.29874259 1.5147719
0.34694844 0.29590723 1.5147721
0.35255751 0.29168707 1.5147719
0.33561438 0.30438703 1.5147721
0.34267402 0.30156481 1.5147719
0.33501258 0.31411496 1.5147721
0.32996666 0.32837579 1.5147719
0.33373183 0.32461286 1.5147719
0.32902539 0.33543131 1.5147719
0.33279052 0.3340202 1.5147719
0.32494652 0.34640658 1.5147721
0.32398516 0.3548888 1.5147719
0.32431898 0.3608312 1.5147719
0.42738962 0.36929783 1.5147719
0.32714283 0.37635335 1.5147719
0.42786026 0.37306079 1.5147719
0.43431583 0.37524572 1.5147719
0.32927567 0.38417256 1.5147719
0.33279052 0.38905329 1.5147719
0.33522516 0.3959077 1.5147719
0.34345722 0.39843225 1.5147719
0.33999172 0.40217978 1.5147719
0.34552878 0.40409634 1.5147719
0.35396945 0.40880877 1.5147719
0.32326335 0.41535217 1.5147719
0.3370263 0.41445318 1.5147719
0.34609872 0.41482851 1.5147719
0.3558456 0.41459733 1.5147719
0.36503935 0.41611484 1.5147719
0.37532181 0.41716039 1.5147719
0.38254395 0.41919076 1.5147719
0.34761578 0.42080313 1.5147719
0.35417578 0.42486107 1.5147719
0.38384694 0.42447546 1.5147721
0.39105439 0.42769626 1.5147719
0.35417578 0.43194899 1.5147719
0.38821757 0.43053141 1.5147719
0.39105439 0.43053141 1.5147719
0.37839282 0.2596041 1.5266128
0.38268134 0.2596041 1.5266128
0.36956209 0.26980478 1.5266128
0.37565562 0.26581824 1.5245571
0.38449547 0.26241508 1.5252032
0.34963956 0.27833802 1.5266128
0.35561034 0.27723899 1.5257906
0.36539403 0.27419406 1.5252032
0.37119669 0.27176225 1.5216793
0.39978758 0.27437311 1.5266128
0.33473697 0.28894675 1.5266128
0.34589913 0.28578815 1.525556
0.35382116 0.28274849 1.5216792
0.32781965 0.29635268 1.5266128
0.33564115 0.29495478 1.5241461
0.34436268 0.29350039 1.5216793
0.32592756 0.30582988 1.5262842
0.33289966 0.30294907 1.5216793
0.31978256 0.31960887 1.5266128
0.32544792 0.31531543 1.5257907
0.33148125 0.31570727 1.5216793
0.31732011 0.32608929 1.5266128
0.32538089 0.3252039 1.5256879
0.33148125 0.32421279 1.5216793
0.30979452 0.33664858 1.5266128
0.31496817 0.33472466 1.5266129
0.32476372 0.33533472 1.5230889
0.31491837 0.34471285 1.5254745
0.3219043 0.34401485 1.522384
0.31466514 0.35525617 1.5249685
0.32107958 0.35634464 1.5216793
0.29405123 0.36675549 1.5266128
0.31414407 0.36519215 1.5255558
0.32261619 0.36567703 1.5216792
0.31584102 0.37440372 1.5266128
0.32367334 0.37488413 1.5231593
0.43715265 0.37382814 1.5216793
0.442137 0.37220377 1.5216793
0.30402076 0.384657 1.5266128
0.31799057 0.38346624 1.5266128
0.32425153 0.38504782 1.5248188
0.30979452 0.39780352 1.5266128
0.31656066 0.39540395 1.5266128
0.32485166 0.39420229 1.5243359
0.33242688 0.39839959 1.5216793
0.31670648 0.40349236 1.5230888
0.32544792 0.40491459 1.5241461
0.33534965 0.40527266 1.5216792
0.34377414 0.40690503 1.5216793
0.31905764 0.41439253 1.5216793
0.32793802 0.41441709 1.5216793
0.33516917 0.41295338 1.5216792
0.34531075 0.41387483 1.5216792
0.35417581 0.41777319 1.5216793
0.35843104 0.42486107 1.5216793
0.36591518 0.42537445 1.522296
0.37606135 0.42498827 1.5216792
0.3809464 0.42909211 1.5216793
0.35843101 0.43194899 1.5216793
0.36612806 0.43292013 1.5266128
0.37556192 0.43444264 1.5266129
0.38147891 0.43336138 1.5233238
0.35531014 0.267517 1.5335193
0.36474752 0.26840445 1.5335193
0.37244418 0.26545766 1.5335193
0.34694338 0.27746266 1.5335193
0.35552055 0.27331945 1.5335194
0.3640976 0.27246225 1.5335193
0.34265485 0.28389174 1.5335193
0.32550061 0.29470894 1.5335193
0.31921369 0.30644977 1.5335193
0.32264158 0.30246463 1.5335193
0.31604195 0.31565166 1.5335195
0.30869588 0.32425719 1.5335193
0.31324762 0.32491541 1.5335193
0.30659285 0.33565277 1.5335194
0.31120545 0.33103836 1.5335193
0.3056131 0.34521958 1.5335194
0.31120545 0.3467539 1.5335193
0.29976928 0.35961208 1.5335193
0.30548739 0.35532603 1.5335195
0.31120545 0.355326 1.5335193
0.29862568 0.36589828 1.5335193
0.30548739 0.36532679 1.5335194
0.29919749 0.37447038 1.5335193
0.30548739 0.37532765 1.5335195
0.31234905 0.37732777 1.5335193
0.3071824 0.38717532 1.5335193
0.3140645 0.38604274 1.5335193
0.30720279 0.39332905 1.5335193
0.31365606 0.39308414 1.5335193
0.32550061 0.41961685 1.5335193
0.37292832 0.43874124 1.5335193
0.37148786 0.44043848 1.5335193
0.36860475 0.26755273 1.5404255
0.37315801 0.26586121 1.5404255
0.3906216 0.28048018 1.5404255
0.31756762 0.29461262 1.543385
0.32335401 0.29398099 1.5404255
0.30944446 0.30782977 1.5463446
0.31534603 0.30567765 1.543385
0.32123235 0.30096561 1.5404255
0.30885193 0.31588122 1.5443716
0.31218871 0.31259364 1.5427932
0.30651575 0.32506785 1.543385
0.30314869 0.33461756 1.5423985
0.29912171 0.34645379 1.5448649
0.30105397 0.34458756 1.5416092
0.29825637 0.35550183 1.5404257
0.30112836 0.35550183 1.5404257
0.29825637 0.3626776 1.5404255
0.31550393 0.29442865 1.5532502
0.30712759 0.30580369 1.5532502
0.31378856 0.30204099 1.5532501
0.29786018 0.31217134 1.5532501
0.30380189 0.31522384 1.5532502
0.29919329 0.32519788 1.5532501
0.30313566 0.32471213 1.5532502
0.30248982 0.33572844 1.5532501
0.29919329 0.32810524 1.560155
0.30210233 0.32810524 1.560155
0.29919329 0.33101258 1.560155
0.30210233 0.33101258 1.560155
