# .PCD v0.7 - Point Cloud Data file format
VERSION 0.7
FIELDS x y z
SIZE 4 4 4
TYPE F F F
COUNT 1 1 1
WIDTH 1033
HEIGHT 1
VIEWPOINT 0 0 0 1 0 0 0
POINTS 1033
DATA ascii
0.93710393 -0.713826 1.8832315
1.0843388 -0.72395289 1.893067
0.93790418 -0.71217299 1.893067
1.0678632 -0.71670818 1.8930671
0.93268508 -0.69648671 1.893067
1.0335411 -0.72341788 1.9029018
0.94155574 -0.71217299 1.9029018
1.0654942 -0.71434063 1.9029018
0.92904127 -0.70094228 1.9029018
0.93612576 -0.70536691 1.9029018
0.94155139 -0.70221025 1.9029018
0.95142317 -0.70779693 1.9029018
1.0267386 -0.73309773 1.9127355
1.0633956 -0.7372331 1.9127355
1.0268003 -0.72672093 1.9127355
1.0334477 -0.72455132 1.9127353
1.041231 -0.72215778 1.9127355
1.0735618 -0.72215778 1.9127355
0.96777403 -0.71666831 1.9127355
1.0756364 -0.71338737 1.9127353
0.93163675 -0.70108348 1.9127355
0.94155574 -0.70852357 1.9127355
0.95142317 -0.70420671 1.9127355
1.0684528 -0.70499337 1.9127355
1.0751115 -0.70525563 1.9127352
1.0825427 -0.70420682 1.9127353
0.92904127 -0.69549865 1.9127355
0.93060106 -0.69757527 1.9127355
1.0753579 -0.6952312 1.9127355
1.0843388 -0.69523114 1.9127355
1.0641356 -0.39394614 1.9127353
1.045679 -0.38449177 1.9127355
1.0539969 -0.38543612 1.9127355
1.0670269 -0.7372331 1.9235516
1.0742893 -0.7372331 1.9235516
1.0285441 -0.72588027 1.9235516
1.0447928 -0.72227156 1.9235516
1.0574306 -0.72227156 1.9235516
1.0653423 -0.72511303 1.9235516
1.0736794 -0.72948897 1.9235516
0.93993485 -0.71182954 1.9235516
0.94719726 -0.71182954 1.9235516
0.96716881 -0.71182954 1.9235516
0.97261566 -0.71727318 1.9235516
1.0268618 -0.71856755 1.9235516
1.0343596 -0.71862471 1.9235516
1.0447928 -0.7186628 1.9235516
1.0583117 -0.71501577 1.9235516
1.0645953 -0.7153247 1.9235516
1.0735619 -0.71497738 1.9235516
0.93811929 -0.70457137 1.9235516
0.94485199 -0.7055521 1.9235516
0.95177251 -0.70621419 1.9235516
0.96172208 -0.70820045 1.9235516
1.0591925 -0.70420671 1.9235516
1.0645812 -0.70420671 1.9235516
0.93267244 -0.69549865 1.9235516
1.0591925 -0.69523114 1.9235516
1.0663773 -0.6952312 1.9235516
1.0591925 -0.6898458 1.9235516
1.0669135 -0.68880492 1.9235517
1.075376 -0.68624538 1.9235517
1.0776007 -0.67684489 1.9235516
1.0827065 -0.67535818 1.9235516
1.0691164 -0.66102362 1.9235516
1.0754341 -0.66461223 1.9235516
1.0827065 -0.66814065 1.9235516
1.0681914 -0.6560539 1.9235516
1.0749383 -0.65388411 1.9235516
1.0681734 -0.64496803 1.9235516
1.0766039 -0.64667153 1.9235516
1.0827065 -0.64468396 1.9235516
1.0681734 -0.63778764 1.9235516
1.0754513 -0.63523835 1.9235517
1.0847423 -0.6368506 1.9235516
1.0790957 -0.62664032 1.9235516
1.0827065 -0.62664032 1.9235516
1.0375711 -0.60498798 1.9235516
1.0790957 -0.55446577 1.9235516
1.0827065 -0.55446577 1.9235516
1.0790957 -0.5472483 1.9235516
1.0827065 -0.5472483 1.9235516
1.0753579 -0.53367126 1.9235516
1.0753579 -0.52110547 1.9235516
1.0591925 -0.5121299 1.9235516
1.0663772 -0.5121299 1.9235516
1.0753579 -0.51392502 1.9235516
1.0591925 -0.50494945 1.9235516
1.0663772 -0.50494945 1.9235516
1.0753579 -0.50494945 1.9235516
1.0681734 -0.49776903 1.9235516
1.0747986 -0.49681994 1.9235516
1.0827065 -0.49492177 1.9235516
1.0682632 -0.47507375 1.9235516
1.071874 -0.47507375 1.9235516
1.0597644 -0.4614228 1.9235516
1.0673207 -0.46437424 1.9235516
1.0739895 -0.46463954 1.9235516
1.0597644 -0.45779371 1.9235516
1.0761049 -0.45779371 1.9235516
1.0466194 -0.44212061 1.9235516
1.0736794 -0.44259524 1.9235516
1.0466194 -0.43853042 1.9235516
1.0738703 -0.42107457 1.9235516
1.083967 -0.42021784 1.9235516
1.0770826 -0.41336769 1.9235516
1.0827535 -0.41464797 1.9235516
1.0661348 -0.40240902 1.9235516
1.0734414 -0.40547413 1.9235516
1.0379772 -0.39247021 1.9235516
1.044935 -0.3946113 1.9235516
1.0666453 -0.39537081 1.9235516
1.0730122 -0.39649647 1.9235516
1.0379772 -0.38884112 1.9235516
1.0441084 -0.38775054 1.9235516
1.0561333 -0.38884112 1.9235516
1.0657091 -0.38737285 1.9235516
1.0270836 -0.73541856 1.9333835
1.0597644 -0.73360407 1.9333835
1.0652113 -0.73360407 1.9333835
1.0261369 -0.7234745 1.9333835
1.0325304 -0.72271681 1.9333835
1.0553656 -0.72679555 1.9333837
1.0630298 -0.72724521 1.9333835
1.071874 -0.72588027 1.9333835
0.97442067 -0.71557319 1.9333835
1.0198213 -0.71364409 1.9333835
1.0252681 -0.71364409 1.9333835
1.0347999 -0.71500504 1.9333837
1.0447872 -0.71501487 1.9333838
1.054812 -0.71394604 1.9333837
0.9452073 -0.70852357 1.9333835
0.95616198 -0.70852357 1.9333835
0.96346515 -0.70852357 1.9333835
1.0198214 -0.70457143 1.9333835
1.0256312 -0.70529717 1.9333836
1.0343461 -0.70602304 1.9333836
1.0461473 -0.70729315 1.9333835
1.0552447 -0.70478606 1.9333837
1.0610416 -0.70422792 1.9333835
0.93630368 -0.69549865 1.9333835
1.0174782 -0.69451571 1.9333835
1.0261759 -0.6945914 1.9333835
1.0379772 -0.6936841 1.9333835
1.0437315 -0.69409394 1.9333837
1.0538199 -0.69520611 1.9333837
1.0610415 -0.69520611 1.9333835
1.0159771 -0.68579108 1.9333837
1.0270836 -0.68461144 1.9333835
1.0379772 -0.68642598 1.9333835
1.0443379 -0.68621892 1.9333837
1.0533686 -0.68663543 1.9333837
1.0641365 -0.68515331 1.9333837
1.0730777 -0.68377846 1.9333835
1.0159061 -0.67896682 1.9333835
1.0349307 -0.67599308 1.9333837
1.0469409 -0.67594463 1.9333837
1.0544857 -0.67509955 1.9333838
1.0660967 -0.67680156 1.9333836
1.0737666 -0.67486548 1.9333837
1.0339603 -0.66814065 1.9333835
1.0470552 -0.66465151 1.9333837
1.0561333 -0.6651051 1.9333837
1.0637774 -0.66301662 1.9333837
1.071874 -0.66814065 1.9333835
1.0361617 -0.65557873 1.9333835
1.0452397 -0.65557873 1.9333837
1.0575857 -0.65521586 1.9333836
1.064734 -0.6534276 1.9333838
1.0597644 -0.64650607 1.9333835
1.0658345 -0.64468771 1.9333837
1.0664455 -0.63609695 1.9333837
1.0779204 -0.63561881 1.9333835
1.0379772 -0.62110245 1.9333835
1.0461473 -0.62382424 1.9333835
1.0567385 -0.6235218 1.9333837
1.0656773 -0.62476814 1.9333837
1.0742817 -0.62440014 1.9333837
1.0827065 -0.6212272 1.9333835
1.0373704 -0.6135807 1.9333838
1.0488708 -0.61384428 1.9333835
1.0548859 -0.61560726 1.9333835
1.0682632 -0.6176185 1.9333835
1.0757284 -0.61363035 1.9333838
1.0857602 -0.61392701 1.9333835
1.0361617 -0.60658616 1.9333835
1.0488708 -0.60658616 1.9333835
1.058406 -0.60998869 1.9333835
1.0776054 -0.60578197 1.9333835
1.0844566 -0.60440868 1.9333836
1.0779204 -0.59932798 1.9333835
1.0851828 -0.59932798 1.9333835
1.0790957 -0.57250941 1.9333835
1.0845119 -0.57250941 1.9333835
1.04645 -0.56424683 1.9333835
1.0543177 -0.56485164 1.9333835
1.0790957 -0.56529194 1.9333835
1.0827065 -0.56529194 1.9333835
1.0765506 -0.55550951 1.9333837
1.0827065 -0.55987889 1.9333835
1.0772903 -0.54544395 1.9333835
1.0819366 -0.54508257 1.9333835
1.0470552 -0.53218991 1.9333835
1.0563928 -0.53195375 1.9333836
1.0658345 -0.53341401 1.9333835
1.0742807 -0.53446954 1.9333837
1.0827065 -0.53100908 1.9333835
1.0488708 -0.52674627 1.9333835
1.0570737 -0.52473104 1.9333837
1.0646523 -0.52379161 1.9333837
1.0744532 -0.52430713 1.9333837
1.0827065 -0.52740031 1.9333835
1.0567559 -0.51527834 1.9333838
1.0610415 -0.51476979 1.9333835
0.87947911 -0.50233018 1.9333835
1.0574306 -0.50755233 1.9333835
1.0644804 -0.50400156 1.9333837
0.87947911 -0.49685603 1.9333835
1.0570049 -0.49344659 1.9333835
1.0656948 -0.49561971 1.9333837
1.0721687 -0.49179155 1.9333835
1.0827065 -0.49131307 1.9333835
1.0576948 -0.48635808 1.9333835
1.0658344 -0.48500478 1.9333837
1.072924 -0.48432463 1.9333837
1.0361617 -0.47412458 1.9333835
1.0583119 -0.47521329 1.9333836
1.0652113 -0.47593912 1.9333837
1.070658 -0.47775367 1.9333835
1.0815516 -0.47775367 1.9333835
1.0575857 -0.4657777 1.9333836
1.0646061 -0.4674713 1.9333835
1.0753165 -0.46432027 1.9333837
1.0815516 -0.46323735 1.9333835
1.0538199 -0.45161706 1.9333835
1.0628469 -0.45161703 1.9333835
1.0738828 -0.45246622 1.9333835
1.0815516 -0.45779371 1.9333835
0.90649796 -0.44295612 1.9333836
1.0447929 -0.4443996 1.9333837
1.0552642 -0.44584307 1.9333836
1.0646522 -0.4443996 1.9333837
1.0736794 -0.4480083 1.9333835
1.0463436 -0.43496522 1.9333837
1.0538199 -0.43537778 1.9333837
1.0646523 -0.43537778 1.9333837
1.0736794 -0.43537775 1.9333835
1.0471109 -0.42513731 1.9333837
1.0547396 -0.42648268 1.9333837
1.0646408 -0.42544508 1.9333838
1.0742854 -0.4256627 1.9333837
1.0815516 -0.42150289 1.9333835
1.0469029 -0.41829538 1.9333835
1.0555409 -0.4147341 1.9333838
1.0652113 -0.41424474 1.9333837
1.0470552 -0.40335748 1.9333835
1.0742892 -0.40698656 1.9333835
1.045094 -0.39535528 1.9333837
1.0561333 -0.3960993 1.9333835
1.0627265 -0.39720005 1.9333835
1.0182387 -0.74319327 1.9441977
1.0255418 -0.74319327 1.9441977
1.032845 -0.74501795 1.9441977
1.0060668 -0.73285317 1.9441977
1.0109355 -0.73224497 1.9441977
1.0265852 -0.73459113 1.9441978
0.98537463 -0.72433782 1.9441977
1.0054582 -0.72494608 1.9441977
1.0145872 -0.72312135 1.9441977
1.026049 -0.72570509 1.9441977
0.97685426 -0.71338952 1.9441977
0.98464435 -0.71655238 1.9441977
1.0075439 -0.71414846 1.9441977
1.0186343 -0.7166388 1.9441977
1.0235791 -0.71836746 1.9441977
1.0307149 -0.71908772 1.9441977
1.0561333 -0.71908772 1.9441977
0.94642448 -0.70487416 1.9441977
0.9567706 -0.70426595 1.9441977
0.9656561 -0.7041443 1.9441977
0.97546321 -0.70539552 1.9441978
0.98172307 -0.70487416 1.9441977
1.0071551 -0.70419085 1.9441977
1.0157944 -0.70465213 1.9441977
1.0218903 -0.70852357 1.9441977
1.0343461 -0.70275682 1.9441977
1.043424 -0.70275676 1.9441977
0.9452073 -0.69757527 1.9441977
0.97807145 -0.69757527 1.9441977
0.98537463 -0.69270939 1.9441977
0.99267775 -0.69027638 1.9441977
1.0068158 -0.69341582 1.9441979
1.0134666 -0.6945914 1.9441977
1.0325305 -0.69368422 1.9441977
1.0443318 -0.6945914 1.9441977
0.98720038 -0.68662691 1.9441977
0.99267775 -0.68662691 1.9441977
1.0060096 -0.68534344 1.9441977
1.0137757 -0.68509084 1.9441977
1.0325304 -0.68461144 1.9441977
1.04645 -0.68400663 1.9441977
1.0633956 -0.68461144 1.9441977
1.018347 -0.67677516 1.9441977
1.0252681 -0.67553872 1.9441977
1.0348836 -0.67557365 1.9441977
1.0652113 -0.67553872 1.9441977
1.070658 -0.67553872 1.9441977
0.88728249 -0.66102237 1.9441977
0.89670461 -0.6628617 1.9441977
0.9046858 -0.66654038 1.9441977
0.91599476 -0.66473031 1.9441978
0.92512369 -0.66290557 1.9441977
0.93242681 -0.66290557 1.9441977
0.98350924 -0.66102237 1.9441977
0.99258721 -0.66102237 1.9441977
1.007112 -0.66102237 1.9441977
1.0198213 -0.66283691 1.9441977
1.0252681 -0.66465151 1.9441977
1.0343461 -0.66465145 1.9441978
1.0416086 -0.66465151 1.9441977
1.0561333 -0.66102237 1.9441977
1.0633956 -0.66828054 1.9441977
0.88761133 -0.65467083 1.9441977
0.89499444 -0.65443033 1.944198
0.90468574 -0.65286267 1.9441977
0.91525823 -0.65337706 1.9441978
0.92400879 -0.65499938 1.9441977
0.93181825 -0.65134907 1.9441977
0.96711671 -0.65378201 1.9441977
0.97259414 -0.65378201 1.9441977
0.98532486 -0.65557873 1.9441977
0.99258721 -0.65557873 1.9441977
1.007112 -0.65739328 1.9441977
1.0198213 -0.65739328 1.9441977
1.0252681 -0.65376419 1.9441977
1.0321603 -0.65285629 1.9441977
1.0437998 -0.65195727 1.9441977
1.0546452 -0.65240896 1.9441977
1.0620575 -0.65378195 1.9441977
0.91633201 -0.64469153 1.9441977
0.92177886 -0.64469153 1.9441977
0.93060106 -0.64648306 1.9441977
1.0364965 -0.64648306 1.9441977
1.0437996 -0.64465833 1.9441977
1.0556176 -0.64446777 1.9441978
0.87659878 -0.63875759 1.9441977
0.91633207 -0.63924789 1.9441977
1.0467072 -0.63617444 1.9441977
1.0550914 -0.63526595 1.944198
1.0630611 -0.63468546 1.9441977
1.0742892 -0.63561881 1.9441977
0.87659878 -0.62225181 1.9441977
0.88026887 -0.62408578 1.9441977
1.0350723 -0.62400573 1.9441977
1.0452397 -0.62836063 1.9441977
1.0543177 -0.62654608 1.9441977
1.0670269 -0.62836063 1.9441977
1.0724735 -0.62836063 1.9441977
0.87744248 -0.61572027 1.9441977
0.88313067 -0.61546284 1.9441977
0.99998087 -0.6136381 1.9441977
1.0066147 -0.61249721 1.9441977
1.0161901 -0.61021519 1.9441977
1.0260558 -0.61249715 1.9441977
1.0321673 -0.61457008 1.9441977
1.0585541 -0.61505401 1.9441977
1.065625 -0.61422062 1.9441977
1.0721104 -0.61457014 1.9441977
1.0803154 -0.6136381 1.9441977
1.0924453 -0.61021519 1.9441977
0.87400174 -0.60816395 1.9441977
0.99815512 -0.60633922 1.9441977
1.005954 -0.6063745 1.9441978
1.0152283 -0.6042484 1.9441977
1.0254049 -0.60737509 1.9441977
1.0348836 -0.60470986 1.9441977
1.0445247 -0.60282344 1.9441977
1.0565802 -0.60633922 1.9441977
1.0661656 -0.60679543 1.9441977
1.0747597 -0.60585612 1.9441978
1.0845647 -0.60828745 1.9441977
1.0924453 -0.60477161 1.9441977
0.99998087 -0.59539098 1.9441977
1.0054584 -0.59539098 1.9441977
1.0145872 -0.59539098 1.9441978
1.0250201 -0.59643364 1.9441978
1.0364965 -0.59721565 1.9441977
1.0456254 -0.59721565 1.9441977
1.0761049 -0.59751344 1.9441977
1.0860935 -0.59421986 1.9441977
1.0924453 -0.59569895 1.9441977
0.86852437 -0.58079314 1.9441977
0.90543854 -0.58299708 1.9441977
0.99998087 -0.58261788 1.9441977
1.0058235 -0.58371276 1.9441977
1.0145872 -0.58444256 1.9441978
1.0218904 -0.58444262 1.9441977
1.0543177 -0.58118254 1.9441977
1.0685828 -0.58213943 1.9441977
1.0742892 -0.5811826 1.9441977
1.0861253 -0.58513737 1.9441978
1.0924453 -0.58481163 1.9441977
0.86730719 -0.57471079 1.9441977
0.90543848 -0.57755345 1.9441977
1.007284 -0.57531899 1.9441977
1.0145873 -0.57531899 1.9441977
1.0249419 -0.57414436 1.9441978
1.0344759 -0.57303464 1.9441977
1.0445197 -0.5737195 1.9441977
1.0539705 -0.5747292 1.9441977
1.0669514 -0.57542139 1.9441977
1.0742892 -0.57392442 1.9441978
1.0815516 -0.57392442 1.9441977
0.86852437 -0.56984484 1.9441977
1.007284 -0.56984484 1.9441977
1.0145872 -0.56984484 1.9441977
1.0261226 -0.56591833 1.9441977
1.0343461 -0.56485164 1.9441977
1.0440292 -0.56545651 1.9441977
1.0675349 -0.56802016 1.9441977
1.0742892 -0.56485164 1.9441977
1.0815516 -0.56485164 1.9441977
0.99803406 -0.55396444 1.9441977
1.0052965 -0.5539645 1.9441977
1.0272967 -0.5558337 1.9441977
1.0342752 -0.5550378 1.944198
1.0447304 -0.55536085 1.9441979
1.0563856 -0.55571765 1.9441978
1.0654247 -0.55606663 1.9441978
1.0715657 -0.55668628 1.9441977
0.86440605 -0.5427143 1.9441977
0.90686584 -0.54247403 1.9441977
1.007112 -0.54670626 1.9441977
1.035773 -0.5481391 1.9441977
1.0462134 -0.5472157 1.9441977
1.0564867 -0.54442143 1.9441977
1.0670269 -0.54126263 1.9441977
1.07504 -0.54527378 1.9441977
1.0803154 -0.54794818 1.9441977
0.86731088 -0.53218991 1.9441977
0.87384701 -0.53182703 1.9441977
0.8818357 -0.53037536 1.9441977
0.90686584 -0.53699988 1.9441977
0.99621844 -0.53581899 1.9441977
1.0052965 -0.53581899 1.9441977
1.0437907 -0.53537577 1.9441978
1.0561333 -0.53545612 1.9441977
1.0670269 -0.53763354 1.9441977
0.87384701 -0.52529472 1.9441977
0.8818357 -0.52674627 1.9441977
1.0054582 -0.52787626 1.9441977
1.0379772 -0.52493179 1.9441977
1.0448312 -0.5239498 1.9441978
1.052502 -0.52311724 1.9441977
0.87520552 -0.51547098 1.9441977
1.0364965 -0.51327848 1.9441977
1.0455831 -0.51545209 1.9441981
1.0541912 -0.51346242 1.9441977
0.87947911 -0.50780433 1.9441977
1.0574927 -0.5066632 1.9441977
1.0638833 -0.50506729 1.9441977
1.0173219 -0.49245736 1.9441977
1.0258732 -0.49166518 1.9441977
1.0336199 -0.49190712 1.9441977
1.0453939 -0.49301574 1.9441977
1.0538547 -0.4937987 1.9441977
0.88495648 -0.48773241 1.9441977
0.8959111 -0.484083 1.9441977
0.90321434 -0.48225832 1.9441977
1.0054582 -0.484083 1.9441977
1.0156391 -0.48563206 1.9441981
1.0245925 -0.48446116 1.9441977
1.0343461 -0.48501182 1.9441977
1.0457926 -0.48659673 1.9441977
1.0553483 -0.48526168 1.9441978
0.8959111 -0.47678414 1.9441977
0.90321428 -0.47678414 1.9441977
0.99632931 -0.4731347 1.9441977
1.0054584 -0.47495943 1.9441977
1.0151106 -0.4754203 1.9441979
1.0244921 -0.47544926 1.944198
1.0328935 -0.47739077 1.9441977
1.0452397 -0.47593912 1.9441978
1.0537126 -0.47593912 1.9441977
1.070658 -0.47231004 1.9441977
0.89704359 -0.46453661 1.9441977
0.95798779 -0.46036166 1.9441977
0.97441995 -0.4621864 1.9441977
0.98464435 -0.46255136 1.9441977
0.99754655 -0.46461934 1.9441977
1.0054582 -0.46583581 1.9441977
1.0153176 -0.4662008 1.9441977
1.0251857 -0.46580356 1.9441978
1.034196 -0.46458289 1.9441979
1.0452397 -0.46505192 1.9441978
1.052502 -0.46505189 1.9441977
1.0670269 -0.46505189 1.9441977
1.070658 -0.46686643 1.9441977
0.90543848 -0.45053554 1.9441977
0.91526067 -0.45362389 1.9441977
0.95798779 -0.45671222 1.9441977
0.97806543 -0.4531959 1.9441977
0.98532486 -0.45416459 1.9441977
0.99398178 -0.45298699 1.9441977
1.0036324 -0.45306277 1.9441977
1.0355024 -0.45685157 1.9441977
1.0442704 -0.45485088 1.9441978
1.0537125 -0.45658404 1.9441977
0.97624373 -0.44543046 1.9441977
0.98460448 -0.44595623 1.9441977
0.99440289 -0.44509193 1.9441977
1.007284 -0.44758862 1.9441977
1.0237161 -0.44211447 1.9441977
1.0452396 -0.44509193 1.9441977
0.91270089 -0.4396483 1.9441977
0.97511071 -0.4367786 1.9441977
0.98533726 -0.4357183 1.9441977
0.99464625 -0.43677604 1.9441977
1.0016652 -0.43783376 1.9441977
1.0237161 -0.43846503 1.9441977
1.0364965 -0.43116614 1.9441977
1.0439436 -0.43529889 1.9441979
0.92359447 -0.42331743 1.9441977
0.96716881 -0.42150289 1.9441977
0.97625136 -0.42722651 1.9441977
0.9859063 -0.42570239 1.9441979
0.99264568 -0.42436907 1.9441977
1.0364965 -0.4275167 1.9441977
1.0435232 -0.42539132 1.9441977
0.95418125 -0.4130213 1.9441978
0.96535325 -0.41424477 1.9441978
0.97572815 -0.41528162 1.9441978
0.98537463 -0.41413543 1.9441977
0.99267775 -0.41656837 1.9441977
1.0379772 -0.41605926 1.9441977
1.0441104 -0.4135491 1.9441978
0.95809084 -0.40698656 1.9441977
0.96535325 -0.40698656 1.9441977
0.97261566 -0.40698656 1.9441977
1.0034808 -0.40517202 1.9441977
1.016413 -0.40379536 1.9441977
1.0379772 -0.40335748 1.9441977
1.0442253 -0.40671736 1.9441977
1.0561333 -0.40553495 1.9441977
1.0629495 -0.40532136 1.9441977
1.0379772 -0.39791384 1.9441977
1.0416085 -0.39791384 1.9441977
1.0087218 -0.74146008 1.9550109
1.016062 -0.74146008 1.9550109
1.0243969 -0.74536175 1.9550109
1.0068867 -0.73412418 1.9550109
1.0164129 -0.73224497 1.9550109
1.0218903 -0.73224497 1.9550109
0.98720038 -0.72677076 1.9550109
0.99632931 -0.72494602 1.9550111
1.0145872 -0.72677076 1.9550109
1.0218903 -0.72494602 1.9550109
0.98780906 -0.71338952 1.9550109
0.99632931 -0.71582246 1.9550111
1.0045453 -0.71673477 1.9550109
1.0127614 -0.71947187 1.9550109
0.94885886 -0.70304942 1.9550109
0.95251042 -0.70122468 1.9550109
0.97076827 -0.70304942 1.9550109
0.98720038 -0.70487416 1.9550111
0.99632931 -0.70487416 1.9550111
1.0045453 -0.70578647 1.9550109
0.92512369 -0.69027638 1.9550109
0.93388093 -0.69286454 1.9550111
0.94572902 -0.69288319 1.9550111
0.95616204 -0.69392586 1.9550111
0.96529096 -0.69392586 1.9550111
0.9739635 -0.69346964 1.9550111
0.98537463 -0.69453406 1.9550111
0.99678576 -0.69438195 1.9550111
1.0036324 -0.69575053 1.9550109
0.90916061 -0.68470919 1.9550109
0.91765034 -0.68512994 1.955011
0.92512369 -0.68480217 1.9550109
0.93425268 -0.68480223 1.9550111
0.9452073 -0.68480223 1.9550111
0.95616198 -0.68480223 1.9550111
0.9652909 -0.68480217 1.9550109
0.97441995 -0.68480223 1.9550111
0.98446172 -0.68388987 1.9550109
0.99705964 -0.68443722 1.955011
1.0127614 -0.6829775 1.9550109
1.0364965 -0.6829775 1.9550109
0.90650076 -0.67713839 1.955011
0.91599476 -0.67567855 1.9550111
0.92512369 -0.67567861 1.9550111
0.93425262 -0.67567855 1.9550111
0.9452073 -0.67567855 1.9550111
0.95616192 -0.67567861 1.9550111
0.96529096 -0.67567861 1.9550111
0.97441989 -0.67567855 1.9550111
0.98537457 -0.67567861 1.9550111
0.99632931 -0.67567867 1.9550111
1.0054584 -0.67567867 1.9550111
1.0141308 -0.6752224 1.9550111
1.0231075 -0.67324567 1.9550109
1.0364965 -0.67932802 1.9550109
0.92512369 -0.66837972 1.9550109
0.93571329 -0.66619009 1.955011
0.9452073 -0.66473031 1.9550111
0.95616204 -0.66473031 1.9550111
0.96572816 -0.66416389 1.9550111
0.97441989 -0.66473031 1.9550111
0.98433131 -0.66525167 1.9550111
0.9954164 -0.66746742 1.9550109
1.0054584 -0.66473031 1.9550111
1.0160478 -0.66619009 1.955011
1.0218904 -0.66473031 1.9550109
0.89408535 -0.65195727 1.9550109
0.93546987 -0.65499842 1.9550111
0.9452073 -0.65378201 1.9550111
0.95616204 -0.65378201 1.9550111
0.96835089 -0.65526336 1.9550109
0.97807145 -0.65378201 1.9550109
0.98491812 -0.6533258 1.9550111
0.99632931 -0.65195727 1.9550111
1.0054584 -0.65378201 1.9550111
1.0145872 -0.65378195 1.9550111
1.0244985 -0.65326065 1.9550111
1.032845 -0.65013254 1.9550109
0.88475293 -0.64494538 1.955011
0.89408535 -0.64465845 1.9550111
0.90504014 -0.64465833 1.9550111
0.91416895 -0.64465833 1.9550109
0.9269495 -0.64283365 1.9550109
0.93498296 -0.64429343 1.955011
0.9452073 -0.64465833 1.9550111
0.95616198 -0.64465833 1.9550111
0.9677338 -0.64629292 1.9550109
0.97368956 -0.64429343 1.955011
0.98503989 -0.64538741 1.9550111
0.99632931 -0.64465845 1.9550111
1.0054582 -0.64465839 1.9550109
1.0145872 -0.64465833 1.9550111
1.0255418 -0.64465839 1.9550111
1.0340623 -0.64405012 1.9550109
0.87803894 -0.63530755 1.9550109
0.88389629 -0.63567716 1.9550112
0.89408535 -0.63553476 1.9550111
0.90504009 -0.63553482 1.9550111
0.91599476 -0.63553476 1.9550111
0.92512369 -0.63553476 1.9550111
0.93425262 -0.63553476 1.9550111
0.9452073 -0.6355347 1.9550111
0.95616204 -0.63553482 1.9550111
0.96529096 -0.63553476 1.9550111
0.97441989 -0.6355347 1.9550111
0.98570627 -0.63633353 1.9550111
0.99490476 -0.6357404 1.9550111
1.0050727 -0.63655961 1.9550111
1.014587 -0.6355347 1.9550111
1.0255418 -0.63553482 1.9550111
1.0346708 -0.63553476 1.9550111
1.0401481 -0.63553476 1.9550109
0.87875903 -0.62537825 1.9550109
0.88428688 -0.62503892 1.9550111
0.89408535 -0.62458646 1.9550111
0.90504009 -0.6245864 1.9550111
0.91599476 -0.6245864 1.9550111
0.92512369 -0.62458646 1.9550111
0.93425262 -0.62458646 1.9550111
0.9452073 -0.6245864 1.9550111
0.95616204 -0.6245864 1.9550111
0.96529096 -0.62458646 1.9550111
0.97441983 -0.6245864 1.9550111
0.98809636 -0.62511981 1.955011
0.99524611 -0.62482888 1.9550112
1.0054584 -0.62458646 1.9550111
1.0145872 -0.6245864 1.9550111
1.0255419 -0.62458646 1.9550111
1.0337579 -0.62549877 1.9550109
0.88678223 -0.61546284 1.9550109
0.89408541 -0.6154629 1.9550111
0.90569574 -0.61512274 1.9550111
0.91577977 -0.61486763 1.9550111
0.92512369 -0.61546284 1.9550109
0.93425268 -0.6154629 1.9550111
0.9452073 -0.6154629 1.9550111
0.9561621 -0.6154629 1.9550111
0.9652909 -0.61546284 1.9550109
0.97407722 -0.61512274 1.9550111
0.98537463 -0.6154629 1.9550111
0.99559897 -0.6158278 1.955011
1.0054582 -0.61728758 1.9550109
1.0136743 -0.61637521 1.9550109
1.0255419 -0.61728758 1.9550109
1.032845 -0.61728758 1.9550109
0.8761121 -0.60428745 1.9550111
0.88495648 -0.60633922 1.9550111
0.89408535 -0.60633928 1.9550111
0.90458786 -0.60563523 1.9550111
0.91661507 -0.60661709 1.9550111
0.92512369 -0.60633922 1.9550111
0.93425262 -0.60633928 1.9550111
0.9452073 -0.60633928 1.9550111
0.95616204 -0.60633928 1.9550111
0.96437806 -0.60542691 1.9550109
0.97480315 -0.60689127 1.9550112
0.9855094 -0.60583436 1.9550112
0.99267781 -0.60633922 1.9550109
1.0136743 -0.60725158 1.9550109
1.0248115 -0.60414958 1.955011
1.0340623 -0.60390627 1.9550109
1.0401481 -0.6026898 1.9550109
1.0547545 -0.60268986 1.9550109
1.0620575 -0.6026898 1.9550109
0.86852437 -0.5917415 1.9550109
0.8764745 -0.59614575 1.9550111
0.88380176 -0.59435964 1.9550111
0.89408535 -0.59539098 1.9550111
0.90504009 -0.59539098 1.9550111
0.91599476 -0.59539098 1.9550111
0.92512369 -0.59539098 1.9550111
0.93425262 -0.59539098 1.9550111
0.9452073 -0.59539098 1.9550111
0.95616204 -0.59539098 1.9550111
0.96529096 -0.59539098 1.9550111
0.9740262 -0.59467769 1.9550111
0.98551995 -0.59532094 1.9550111
0.9945035 -0.59539092 1.9550111
1.0273676 -0.5917415 1.9550109
1.0337579 -0.59447861 1.9550109
1.0423391 -0.5939312 1.955011
1.0547544 -0.59539098 1.9550111
1.0657091 -0.59539098 1.9550111
1.074838 -0.59539098 1.9550111
1.0812283 -0.59447861 1.9550109
0.86852437 -0.58626735 1.9550109
0.87521899 -0.58322614 1.9550111
0.88428676 -0.58486599 1.9550111
0.89408535 -0.58444256 1.9550111
0.9032144 -0.58444262 1.9550111
0.91782057 -0.58444262 1.9550111
0.92512369 -0.58444262 1.9550111
0.93425262 -0.58444256 1.9550111
0.9452073 -0.58444262 1.9550111
0.95616204 -0.58444262 1.9550111
0.96529096 -0.58444262 1.9550111
0.97441983 -0.58444256 1.9550111
0.98537457 -0.58444268 1.9550111
0.99528605 -0.58496398 1.9550111
1.0036324 -0.58809203 1.9550109
1.0273676 -0.58444262 1.9550111
1.0346708 -0.58444262 1.9550111
1.0437996 -0.58444268 1.9550111
1.0537112 -0.58496398 1.9550111
1.0657091 -0.58590239 1.955011
1.0748379 -0.58809203 1.9550109
1.0803154 -0.58809203 1.9550109
0.87582755 -0.57531899 1.9550111
0.88495642 -0.57531899 1.9550109
0.89408541 -0.57531899 1.9550111
0.90504014 -0.57531899 1.9550111
0.91599476 -0.57531899 1.9550111
0.92512369 -0.57531899 1.9550109
0.93425268 -0.57531899 1.9550111
0.9452073 -0.57531899 1.9550111
0.9561621 -0.57531899 1.9550111
0.9652909 -0.57531899 1.9550109
0.97441995 -0.57531899 1.9550111
0.98537463 -0.57531899 1.9550111
0.99632931 -0.57531899 1.9550111
1.0036324 -0.57531899 1.9550109
1.0693606 -0.57714373 1.9550109
1.0730122 -0.57531899 1.9550109
0.86669856 -0.56437069 1.9550109
0.87582755 -0.56619543 1.9550111
0.88495648 -0.56619549 1.9550111
0.89408535 -0.56619537 1.9550111
0.90504009 -0.56619537 1.9550111
0.91599476 -0.56619543 1.9550111
0.92512369 -0.56619549 1.9550111
0.93425262 -0.56619537 1.9550111
0.9452073 -0.56619543 1.9550111
0.95616204 -0.56619537 1.9550111
0.96529096 -0.56619543 1.9550111
0.97441983 -0.56619531 1.9550111
0.98537457 -0.56619537 1.9550111
0.99632931 -0.56619537 1.9550111
1.0050931 -0.56546557 1.955011
1.0145872 -0.56437075 1.9550111
1.0231075 -0.56497896 1.9550109
1.0730122 -0.56802011 1.9550109
0.86669862 -0.55524707 1.9550111
0.87582761 -0.55524713 1.9550111
0.88495648 -0.55524707 1.9550111
0.89408535 -0.55524713 1.9550111
0.90504009 -0.55524713 1.9550111
0.91599476 -0.55524713 1.9550111
0.92512369 -0.55524707 1.9550111
0.93425262 -0.55524713 1.9550111
0.94579709 -0.55507481 1.9550112
0.95616204 -0.55524713 1.9550111
0.96529096 -0.55524707 1.9550111
0.97441989 -0.55524713 1.9550111
0.98537457 -0.55524713 1.9550111
0.99632931 -0.55524713 1.9550111
1.0054582 -0.55159765 1.9550109
1.0182388 -0.55524707 1.9550109
1.0218904 -0.55524707 1.9550109
1.0657091 -0.55159765 1.9550109
1.0730122 -0.55342233 1.9550109
0.86852437 -0.54064929 1.9550109
0.87687093 -0.54377741 1.9550111
0.88495648 -0.54429877 1.9550111
0.89408535 -0.54429877 1.9550111
0.90357941 -0.54575855 1.955011
0.91599476 -0.54429871 1.9550111
0.92512369 -0.54429877 1.9550111
0.93425262 -0.54429871 1.9550111
0.94543189 -0.54485083 1.955011
0.95506358 -0.54647547 1.9550111
0.9656561 -0.54429877 1.955011
0.97441989 -0.54429877 1.9550111
0.98537457 -0.54429877 1.9550111
0.99587286 -0.54475492 1.9550111
1.0054582 -0.54612345 1.9550109
1.0160477 -0.54429877 1.955011
1.0255418 -0.54429877 1.9550111
1.0346708 -0.54247403 1.9550109
1.0427563 -0.54429883 1.9550111
1.0657091 -0.5464884 1.955011
1.0730122 -0.54794818 1.9550109
0.88495648 -0.53699988 1.9550109
0.89408535 -0.5351752 1.9550111
0.90412724 -0.53426284 1.9550109
0.91679502 -0.53516328 1.9550111
0.92422694 -0.5346176 1.955011
0.93425268 -0.5351752 1.9550111
0.94447702 -0.53481025 1.955011
0.95580614 -0.53582489 1.9550111
0.9652909 -0.5351752 1.9550109
0.97441995 -0.5351752 1.9550111
0.98537463 -0.5351752 1.9550111
0.99559897 -0.53481025 1.955011
1.0054582 -0.53335047 1.9550109
1.0155001 -0.53426284 1.9550109
1.0255418 -0.5351752 1.9550111
1.0346708 -0.5351752 1.9550109
1.0401481 -0.5351752 1.9550109
0.88495648 -0.52422684 1.9550109
0.89408535 -0.52605152 1.9550111
0.90504009 -0.52605158 1.9550111
0.91737449 -0.52527964 1.9550111
0.92448318 -0.52643263 1.9550111
0.93425262 -0.52605158 1.9550111
0.9452073 -0.52605158 1.9550111
0.95616192 -0.52605158 1.9550111
0.96529096 -0.52605152 1.9550111
0.97441989 -0.52605152 1.9550111
0.98537457 -0.52605152 1.9550111
0.99632931 -0.52605152 1.9550111
1.0054582 -0.52240211 1.9550109
1.0141307 -0.52605152 1.9550111
1.025328 -0.52631837 1.9550112
1.0346708 -0.52605158 1.9550111
1.0401481 -0.52605152 1.9550109
0.87765336 -0.51692796 1.9550109
0.88495648 -0.51510328 1.9550111
0.89408535 -0.51510328 1.9550111
0.9050402 -0.51510322 1.9550111
0.91599476 -0.51510322 1.9550111
0.92512369 -0.51510322 1.9550111
0.93425262 -0.51510328 1.9550111
0.9452073 -0.51510322 1.9550111
0.95616204 -0.51510316 1.9550111
0.96529096 -0.51510328 1.9550111
0.97441989 -0.51510328 1.9550111
0.98537457 -0.51510322 1.9550111
0.99632931 -0.51510322 1.9550111
1.0054584 -0.51510328 1.9550111
1.0145872 -0.51510322 1.9550111
1.0255418 -0.51510322 1.9550111
1.0337579 -0.51601559 1.9550109
1.0419738 -0.51510322 1.9550109
0.88495648 -0.50415492 1.9550111
0.89408535 -0.50415498 1.9550111
0.90504009 -0.50415492 1.9550111
0.91599476 -0.50415498 1.9550111
0.92512369 -0.50415492 1.9550111
0.93440521 -0.50556022 1.9550111
0.94545484 -0.50471902 1.9550111
0.9555459 -0.50404382 1.9550112
0.96529096 -0.50415492 1.9550111
0.97581184 -0.50556523 1.9550111
0.9861359 -0.50455326 1.9550112
0.99632931 -0.50415498 1.9550111
1.0054584 -0.50415492 1.9550111
1.0145872 -0.50415498 1.9550111
1.0255419 -0.50415492 1.9550111
1.0346708 -0.50415492 1.9550111
1.0437995 -0.50415492 1.9550111
1.0535372 -0.50354671 1.9550111
1.0620575 -0.50415492 1.9550109
0.88495642 -0.4950313 1.9550109
0.89408535 -0.4950313 1.9550111
0.90504014 -0.4950313 1.9550111
0.91599476 -0.4950313 1.9550111
0.92451513 -0.49563956 1.9550109
0.93165004 -0.49387369 1.9550109
0.94558626 -0.49553859 1.9550111
0.95410812 -0.49525675 1.9550111
0.9652909 -0.4950313 1.9550109
0.97617084 -0.49594101 1.955011
0.98478878 -0.49565887 1.9550111
0.99632931 -0.4950313 1.9550111
1.0054582 -0.49503133 1.9550109
1.0145872 -0.49539623 1.955011
1.0291934 -0.49685603 1.9550109
0.88495648 -0.48225832 1.9550109
0.8926248 -0.48736748 1.955011
0.90556175 -0.48695046 1.9550111
0.91599476 -0.48590776 1.9550111
0.92329788 -0.48590773 1.9550109
0.93165004 -0.48286986 1.9550109
0.94594991 -0.48876691 1.9550109
0.95561743 -0.48565248 1.9550114
0.96467966 -0.48468977 1.9550111
0.9754917 -0.48575959 1.9550111
0.98537457 -0.4859077 1.9550111
0.99632931 -0.48590776 1.9550111
1.0054582 -0.48955715 1.9550109
0.88678223 -0.47678417 1.9550109
0.8926248 -0.47349963 1.955011
0.90650076 -0.47349963 1.955011
0.91599476 -0.47495943 1.9550111
0.92329788 -0.47495943 1.9550109
0.93440259 -0.474617 1.9550109
0.94594991 -0.47290334 1.9550109
0.95574373 -0.4729248 1.9550111
0.96529096 -0.47495943 1.9550111
0.97441983 -0.47495943 1.9550111
0.98537457 -0.47495943 1.9550111
0.99632931 -0.47860891 1.9550109
0.89043379 -0.46766055 1.9550109
0.90650076 -0.46255136 1.955011
0.91599476 -0.46401113 1.9550111
0.92512369 -0.46401113 1.9550111
0.93425262 -0.46401113 1.9550111
0.9452073 -0.4640111 1.9550111
0.95564038 -0.46505386 1.9550111
0.96529096 -0.46401113 1.9550111
0.97441983 -0.46766055 1.9550109
0.98537463 -0.46766055 1.9550109
0.9945035 -0.4640111 1.9550109
1.0054582 -0.46036166 1.9550109
1.0136743 -0.46127403 1.9550109
1.0255418 -0.46127403 1.9550109
0.90686584 -0.45671222 1.9550109
0.9123432 -0.45671222 1.9550109
0.92512369 -0.45488751 1.9550109
0.93425268 -0.45488751 1.9550111
0.9452073 -0.45488751 1.9550111
0.95524907 -0.45397514 1.9550109
0.9652909 -0.45488751 1.9550109
0.97259408 -0.45488751 1.9550109
1.0060668 -0.45549577 1.9550109
1.0145873 -0.45488751 1.9550111
1.0255418 -0.45488751 1.9550111
1.0340623 -0.45427927 1.9550109
1.0419738 -0.45306277 1.9550109
0.92512369 -0.44576392 1.9550111
0.93425262 -0.44576392 1.9550111
0.9452073 -0.44576392 1.9550111
0.95616192 -0.44576392 1.9550111
0.96529096 -0.44576392 1.9550111
0.97076833 -0.44576392 1.9550109
1.014587 -0.44576392 1.9550111
1.0260634 -0.44680661 1.9550111
1.0346708 -0.44576392 1.9550111
1.0437996 -0.44576392 1.9550111
0.92512369 -0.43481562 1.9550111
0.93425262 -0.43481562 1.9550111
0.9452073 -0.43481562 1.9550111
0.95616192 -0.43481559 1.9550111
0.96529096 -0.43481562 1.9550111
0.97222894 -0.4340857 1.955011
0.98537463 -0.43481559 1.9550109
0.99998087 -0.43116614 1.9550109
1.0054582 -0.43299085 1.9550109
1.0145873 -0.43481562 1.9550111
1.0260634 -0.43377292 1.9550111
1.0343057 -0.43554544 1.955011
0.92329788 -0.4275167 1.9550109
0.93644363 -0.42459717 1.955011
0.9452073 -0.42386726 1.9550111
0.95616204 -0.42386726 1.9550111
0.96492577 -0.42459711 1.955011
0.97259408 -0.4275167 1.9550109
0.99906802 -0.42295489 1.9550109
1.0054584 -0.42386729 1.9550111
1.0145872 -0.42386723 1.9550111
1.0255419 -0.42386723 1.9550111
1.0343057 -0.4231374 1.955011
0.9452073 -0.41656837 1.9550109
0.98902619 -0.41291896 1.9550109
0.99705964 -0.41437873 1.955011
1.0054582 -0.41474366 1.9550109
1.0145872 -0.41474366 1.9550111
1.0255419 -0.41474366 1.9550111
1.0346708 -0.41474366 1.9550109
1.0401481 -0.41291896 1.9550109
0.97807145 -0.40562007 1.9550109
0.98537457 -0.4056201 1.9550111
0.99632931 -0.40562007 1.9550111
1.0045453 -0.40470773 1.9550109
1.0145872 -0.40683657 1.9550109
1.0255419 -0.40562007 1.9550111
1.0351583 -0.40486595 1.9550111
1.0401481 -0.4056201 1.9550109
0.98902619 -0.39832118 1.9550109
0.99724221 -0.39740881 1.9550109
1.0054582 -0.39649647 1.9550109
1.0121528 -0.39710471 1.9550109
1.0273676 -0.39832118 1.9550109
1.0364965 -0.39649647 1.9550109
1.0401481 -0.39467177 1.9550109
1.0013816 -0.73412418 1.9648401
0.87292868 -0.63142169 1.9648401
0.96394682 -0.54559177 1.9648402
0.93899018 -0.50304353 1.9648401
0.93715519 -0.49570769 1.9648402
0.9363687 -0.48522788 1.9648402
0.94449532 -0.48286986 1.9648401
0.95000046 -0.48286986 1.9648401
0.93715513 -0.47736794 1.9648401
0.94449532 -0.47736794 1.9648401
0.95367062 -0.47736797 1.9648402
