# .PCD v0.7 - Point Cloud Data file format
VERSION 0.7
FIELDS x y z
SIZE 4 4 4
TYPE F F F
COUNT 1 1 1
WIDTH 295
HEIGHT 1
VIEWPOINT 0 0 0 1 0 0 0
POINTS 295
DATA ascii
0.65779555 1.0258018 2.5520535
0.6674543 1.0281987 2.5520535
0.65779555 1.0356249 2.5520535
0.67244834 1.0309082 2.5520535
0.6391052 1.0450245 2.5520535
0.64391589 1.0450245 2.5520535
0.78823799 1.0955077 2.5520535
0.69683403 1.1099316 2.5520535
0.70405018 1.1075276 2.5520535
0.71367162 1.1051236 2.5520535
0.72329307 1.1075276 2.5520535
0.73289835 1.1062922 2.5520535
0.74299163 1.1060585 2.5520535
0.75937361 1.1099316 2.5520535
0.7641843 1.1099316 2.5520535
0.77621114 1.1099316 2.5520535
0.7847026 1.1044177 2.5520535
0.69683403 1.1147395 2.5520535
0.70405012 1.1147395 2.5520535
0.71367157 1.1147395 2.5520535
0.72329307 1.1147395 2.5520535
0.73050916 1.1147395 2.5520535
0.7497521 1.1147395 2.5520535
0.75937361 1.1147395 2.5520535
0.7641843 1.1147395 2.5520535
0.77621114 1.1147395 2.5520535
0.78342724 1.1147395 2.5520535
0.64872664 1.0378126 2.5686741
0.65779555 1.0307133 2.5686741
0.64872664 1.0450245 2.5686741
0.64837718 1.0595267 2.5686741
0.69441223 1.0968822 2.5686741
0.70406711 1.0968822 2.5686741
0.71372187 1.0968822 2.5686741
0.72346026 1.0982567 2.5686741
0.75736868 1.0982567 2.5686741
0.77621114 1.0955077 2.5686741
0.78503084 1.0923026 2.5686741
0.66796958 1.1099316 2.5686741
0.67518568 1.1099316 2.5686741
0.68480718 1.1051236 2.5686741
0.69361866 1.1039846 2.5686741
0.70405012 1.1003157 2.5686741
0.72338498 1.1017067 2.5686741
0.73387229 1.1061883 2.5686741
0.74438059 1.1028866 2.5686741
0.75590944 1.103763 2.5686741
0.76706678 1.103858 2.5686741
0.77621114 1.1027197 2.5686741
0.66786152 1.1161807 2.5686741
0.67510259 1.11376 2.5686741
0.68396664 1.1140865 2.5686741
0.69202328 1.1147395 2.5686741
0.73531991 1.1147395 2.5686741
0.75456285 1.1147395 2.5686741
0.76899505 1.1147395 2.5686741
0.66775346 1.1224629 2.5686741
0.65322125 1.0595267 2.5862701
0.65308636 1.0720985 2.5862701
0.68712974 1.0982567 2.5862701
0.75010258 1.0982567 2.5862701
0.76705682 1.0982567 2.5862701
0.779167 1.0982567 2.5862701
0.78401107 1.0982567 2.5862701
0.7936992 1.0934154 2.5862701
0.67503124 1.1070862 2.5862701
0.68426085 1.1053203 2.5862701
0.69455999 1.1013569 2.5862701
0.70431852 1.1013569 2.5862701
0.714077 1.1013569 2.5862701
0.72383547 1.1013569 2.5862701
0.73440719 1.1029824 2.5862701
0.74253929 1.1046079 2.5862701
0.75067139 1.1062334 2.5862701
0.76286948 1.1013569 2.5862701
0.7771349 1.1046656 2.5862701
0.79458463 1.1013569 2.5862701
0.66775346 1.1127803 2.5862701
0.6742298 1.1127353 2.5862701
0.6823619 1.1111097 2.5862701
0.67253888 1.1289448 2.5862701
0.6579656 1.0452782 2.6048405
0.66271001 1.0454481 2.6048405
0.6628449 1.0574692 2.6048405
0.6628449 1.0647838 2.6048405
0.6579656 1.0720985 2.6048405
0.65779555 1.0847406 2.6048405
0.80522853 1.0896522 2.6048405
0.70675814 1.0964805 2.6048405
0.7141943 1.0979779 2.6048405
0.72322559 1.0984771 2.6048408
0.75555062 1.0964805 2.6048405
0.76286948 1.0964805 2.6048405
0.78970534 1.0964805 2.6048405
0.79702425 1.0940423 2.6048405
0.80522853 1.0945637 2.6048405
0.66516721 1.1092985 2.6048405
0.67420834 1.1040041 2.6048408
0.68726164 1.1053276 2.6048405
0.69465381 1.1043868 2.6048405
0.70448267 1.1043868 2.6048405
0.73396921 1.1043868 2.6048405
0.74446285 1.1033769 2.6048408
0.75336897 1.1028719 2.6048405
0.77296519 1.1028719 2.6048405
0.78518963 1.1053277 2.6048405
0.7904852 1.1043868 2.6048405
0.6659863 1.1158473 2.6048408
0.67253888 1.1166658 2.6048405
0.6674543 1.1271333 2.6048405
0.67253888 1.1240331 2.6048405
0.6674543 1.0479856 2.6234076
0.67244834 1.0458595 2.6234076
0.79771668 1.0482193 2.6234076
0.80273849 1.0482193 2.6234076
0.67244834 1.0508432 2.6234076
0.80273849 1.0532383 2.6234076
0.66762441 1.0601827 2.6234076
0.81482995 1.064389 2.6234076
0.66762441 1.079829 2.6234076
0.79539967 1.079829 2.6234076
0.80277133 1.079829 2.6234076
0.8159427 1.0776659 2.6234076
0.66516721 1.0871964 2.6234076
0.67253888 1.0847406 2.6234076
0.71676874 1.0896522 2.6234076
0.7216832 1.0896522 2.6234076
0.77574193 1.0896522 2.6234076
0.78393269 1.088015 2.6234078
0.79318476 1.0873175 2.6234076
0.80195224 1.0863779 2.6234078
0.81099313 1.0826128 2.6234076
0.66516721 1.0970196 2.6234076
0.67499602 1.0970196 2.6234076
0.68728215 1.0994753 2.6234076
0.69465387 1.0970194 2.6234076
0.70448267 1.0970194 2.6234076
0.71431154 1.0945637 2.6234076
0.72414041 1.0945637 2.6234076
0.73315018 1.0978382 2.6234078
0.74379814 1.0994753 2.6234076
0.75444603 1.0978382 2.6234078
0.76345587 1.0970194 2.6234076
0.77328467 1.0970194 2.6234076
0.78373992 1.0961169 2.6234076
0.7929424 1.0970194 2.6234076
0.80031407 1.0945637 2.6234076
0.66516721 1.1043868 2.6234076
0.67499608 1.1043868 2.6234076
0.68603885 1.10463 2.6234076
0.74417329 1.1023996 2.6234076
0.75407255 1.1023996 2.6234076
0.7831136 1.1043868 2.6234076
0.75399208 1.0366552 2.6419716
0.76220804 1.0309082 2.6419716
0.74795204 1.0458378 2.6419716
0.75415564 1.0458522 2.6419716
0.76387024 1.042537 2.6419716
0.67240393 1.0554056 2.6419716
0.67240393 1.0628258 2.6419716
0.70457637 1.0677725 2.6419716
0.81877613 1.0635335 2.6419716
0.82383502 1.0660615 2.6419716
0.6773535 1.0776659 2.6419716
0.68477798 1.0776659 2.6419716
0.69467717 1.0751926 2.6419716
0.7037515 1.0760171 2.6419716
0.71465528 1.0742221 2.6419716
0.72437489 1.0776659 2.6419716
0.81650198 1.0742406 2.6419716
0.6773535 1.0850861 2.6419716
0.68482369 1.0836394 2.6419716
0.69467717 1.0850861 2.6419716
0.70457637 1.0850861 2.6419716
0.71459532 1.0836394 2.6419716
0.7239629 1.084218 2.6419716
0.73427409 1.0850861 2.6419716
0.74417329 1.0850861 2.6419716
0.75407255 1.0850861 2.6419716
0.76397181 1.0850861 2.6419716
0.77453035 1.0852149 2.6419716
0.7840628 1.0853007 2.6419716
0.79430401 1.0830293 2.6419716
0.80356872 1.0826128 2.6419716
0.81456786 1.0832375 2.6419716
0.6773535 1.0974529 2.6419716
0.68477798 1.0949795 2.6419716
0.69467717 1.0949795 2.6419716
0.70457637 1.0949795 2.6419716
0.71447563 1.0949795 2.6419716
0.72437489 1.0925062 2.6419716
0.73427409 1.0949795 2.6419716
0.74417329 1.0949795 2.6419716
0.75407255 1.0949795 2.6419716
0.76397181 1.0949795 2.6419716
0.773871 1.0949795 2.6419716
0.78129542 1.0925062 2.6419716
0.69220239 1.1023996 2.6419716
0.68221456 1.0482193 2.6615095
0.71801704 1.0487821 2.6615095
0.72311479 1.0487821 2.6615095
0.74350578 1.0487821 2.6615095
0.7525202 1.0432005 2.6615095
0.76719469 1.0458595 2.6615095
0.77218133 1.0433676 2.6615095
0.78516209 1.0482193 2.6615095
0.67743498 1.0558269 2.6615095
0.68221456 1.0582571 2.6615095
0.74605465 1.0538769 2.6615095
0.78516209 1.0532383 2.6615095
0.80273849 1.0582571 2.6615095
0.68242162 1.0657945 2.6615095
0.71736735 1.068295 2.6615095
0.72238922 1.068295 2.6615095
0.81371725 1.0660615 2.6615095
0.68408388 1.0741007 2.6615095
0.69533932 1.0757936 2.6615095
0.70403051 1.0724394 2.6615095
0.71485645 1.0733138 2.6615095
0.72490013 1.0733138 2.6615095
0.76719469 1.0757619 2.6615095
0.77467465 1.0757619 2.6615095
0.78464794 1.0757619 2.6615095
0.79462123 1.0757619 2.6615095
0.80708784 1.0757619 2.6615095
0.81242836 1.0770473 2.6615095
0.69239497 1.0807457 2.6615095
0.72570056 1.0824831 2.6615095
0.73561257 1.082407 2.6615095
0.74475473 1.0857294 2.6615095
0.75472808 1.0857294 2.6615095
0.76470137 1.0832375 2.6615095
0.77384353 1.082407 2.6615095
0.78464794 1.0807457 2.6615095
0.8052277 1.0832604 2.6615095
0.72518712 1.0407819 2.6800675
0.73277545 1.0407819 2.6800675
0.75754201 1.0482193 2.6800675
0.79269481 1.0482193 2.6800675
0.68472546 1.0557477 2.6800675
0.69230449 1.0559497 2.6800675
0.7027238 1.0589716 2.6800675
0.73585916 1.0538769 2.6800675
0.74795204 1.0508938 2.6800675
0.7543577 1.0541298 2.6800678
0.76507473 1.0582571 2.6800675
0.77511841 1.0582571 2.6800675
0.78516209 1.0582571 2.6800675
0.79520571 1.0557477 2.6800675
0.68723637 1.0657855 2.6800675
0.6935252 1.065218 2.6800675
0.70481277 1.068295 2.6800675
0.71234554 1.068295 2.6800675
0.72741103 1.068295 2.6800675
0.73494375 1.068295 2.6800675
0.7454226 1.0660615 2.6800675
0.75503111 1.0657855 2.6800675
0.76507473 1.0657855 2.6800675
0.77511841 1.0657855 2.6800675
0.78516209 1.0657855 2.6800675
0.79520571 1.0657855 2.6800675
0.81278217 1.0657855 2.6800675
0.69476914 1.0733138 2.6800675
0.70488226 1.0722156 2.6800675
0.71506941 1.0711174 2.6800675
0.72592849 1.0735226 2.6800678
0.73512429 1.0747252 2.6800675
0.74604505 1.0747313 2.6800675
0.75503111 1.0758233 2.6800675
0.76507473 1.0758233 2.6800675
0.77511841 1.0758233 2.6800675
0.78516209 1.0758233 2.6800675
0.79520577 1.0758233 2.6800675
0.80611086 1.0754541 2.6800675
0.81340551 1.0735348 2.6800678
0.73590726 1.0826442 2.6800678
0.74566364 1.0835065 2.6800675
0.75503111 1.0858612 2.6800675
0.76423782 1.0850247 2.6800678
0.81371725 1.0812292 2.6800675
0.69736338 1.0559497 2.6995986
0.70782155 1.0589716 2.6995986
0.71546817 1.0538769 2.6995986
0.72566366 1.0538769 2.6995986
0.73783427 1.0559497 2.6995986
0.74573863 1.0574607 2.6995986
0.75554031 1.0559497 2.6995986
0.69736338 1.0635335 2.6995986
0.70660549 1.0652713 2.6995986
0.71565896 1.0636401 2.6995986
0.72627181 1.0650705 2.6995988
0.73548961 1.0637112 2.6995988
0.7454226 1.0610056 2.6995986
0.7546972 1.0643762 2.6995988
0.75301087 1.0736454 2.6995986
