# .PCD v0.7 - Point Cloud Data file format
VERSION 0.7
FIELDS x y z
SIZE 4 4 4
TYPE F F F
COUNT 1 1 1
WIDTH 337
HEIGHT 1
VIEWPOINT 0 0 0 1 0 0 0
POINTS 337
DATA ascii
1.3430591 -0.49022594 2.3563297
1.3385649 -0.48573446 2.3710208
1.3430591 -0.48573446 2.3710208
1.3325251 -0.42247218 2.3710208
1.3295767 -0.48124295 2.3866892
1.3363178 -0.48124295 2.3866892
1.3430591 -0.48124295 2.3866892
1.3295767 -0.47675148 2.3866892
1.3370669 -0.4752543 2.3866892
1.3430591 -0.47450572 2.3866892
1.3277011 -0.46408424 2.3866892
1.330292 -0.46264565 2.3866892
1.3325251 -0.45371819 2.3866892
1.3325251 -0.44702262 2.3866892
1.3385649 -0.43632817 2.3866892
1.3430591 -0.43632817 2.3866892
1.3235924 -0.42693591 2.3866892
1.3330404 -0.42706308 2.3866892
1.3325251 -0.41354471 2.3866892
1.3385649 -0.40937933 2.3866892
1.3445024 -0.40727478 2.3866892
1.3235924 -0.37337127 2.3866892
1.3317808 -0.37262735 2.3866892
1.3430591 -0.37793899 2.3866892
1.3235924 -0.36444384 2.3866892
1.3325251 -0.36444387 2.3866892
1.3235924 -0.35774827 2.3866892
1.3325251 -0.35551643 2.3866892
1.3475531 -0.49022594 2.4013762
1.3475531 -0.48348871 2.4013762
1.3273296 -0.47226 2.4013762
1.3340708 -0.47226 2.4013762
1.3475531 -0.47450572 2.4013762
1.3160944 -0.46552277 2.4013762
1.3228357 -0.4655228 2.4013762
1.3453062 -0.4655228 2.4013762
1.3265336 -0.45703897 2.4013765
1.3339866 -0.45528254 2.4013762
1.3475531 -0.45878556 2.4013762
1.3295767 -0.44755685 2.4013762
1.3362807 -0.44429836 2.4013765
1.3457556 -0.4444128 2.4013765
1.3295767 -0.43632817 2.4013762
1.3340708 -0.43632817 2.4013762
1.3475531 -0.43408245 2.4013762
1.3265808 -0.42435092 2.4013762
1.3295767 -0.41836229 2.4013762
1.3340708 -0.41836229 2.4013762
1.3444281 -0.41418275 2.4013762
1.3459957 -0.40427551 2.4013765
1.3460006 -0.39677495 2.4013762
1.3541749 -0.39399382 2.4013762
1.3455527 -0.38544014 2.4013765
1.3250827 -0.37569326 2.4013762
1.3475531 -0.37793899 2.4013762
1.3250827 -0.36671031 2.4013762
1.3355688 -0.35248733 2.4013762
1.3430591 -0.35099015 2.4013762
1.3370669 -0.34500155 2.4013762
1.3429946 -0.34425592 2.4013762
1.3385649 -0.33526999 2.4013762
1.3429946 -0.33676025 2.4013762
1.3385649 -0.32628703 2.4013762
1.3445024 -0.32474351 2.4013762
1.3519131 -0.32165647 2.4013762
1.3519131 -0.31487483 2.4013762
1.3519131 -0.30809319 2.4013762
1.3233171 -0.46417043 2.4170408
1.3263253 -0.45456642 2.4170408
1.32533 -0.44543421 2.4170406
1.3338182 -0.44598633 2.4170406
1.3252854 -0.43552202 2.4170406
1.3338182 -0.43694416 2.4170406
1.3292944 -0.42338091 2.4170406
1.3338182 -0.42112035 2.4170406
1.3292944 -0.41433871 2.4170406
1.336573 -0.41354963 2.4170406
1.3294343 -0.40128803 2.4170406
1.3369017 -0.40471917 2.4170408
1.3429828 -0.40216202 2.4170406
1.3294343 -0.39673549 2.4170406
1.3384094 -0.39489722 2.4170406
1.3440551 -0.39467138 2.4170406
1.3384433 -0.38628316 2.4170406
1.3445867 -0.38608143 2.4170406
1.3385446 -0.37397274 2.4170406
1.3385446 -0.3694202 2.4170406
1.338342 -0.35556459 2.4170406
1.338342 -0.34652242 2.4170406
1.338342 -0.33974078 2.4170406
1.3444622 -0.33449024 2.4170406
1.3428656 -0.32617754 2.4170406
1.3522103 -0.32389474 2.4170406
1.3458815 -0.31412134 2.4170406
1.3522103 -0.3193422 2.4170406
1.3458815 -0.30658618 2.4170406
1.3519131 -0.30357212 2.4170406
1.3473895 -0.29452997 2.4170406
1.3519132 -0.29452991 2.4170406
1.3473893 -0.28322721 2.4170406
1.3541749 -0.28322721 2.4170406
1.3546346 -0.27467757 2.4170408
1.3473893 -0.26514286 2.4170406
1.353762 -0.26435816 2.4170406
1.3543314 -0.2547155 2.4170406
1.3549289 -0.24781203 2.4170406
1.3218282 -0.46510252 2.4336815
1.3142503 -0.45288357 2.4336812
1.3221362 -0.45472771 2.4336812
1.3149692 -0.44530663 2.4336815
1.3202747 -0.44302523 2.4336812
1.3157283 -0.4346447 2.4336812
1.3225851 -0.4341484 2.4336815
1.3157686 -0.42632705 2.4336812
1.323728 -0.42591763 2.4336812
1.3339895 -0.42632705 2.4336812
1.3157686 -0.41949821 2.4336812
1.3244925 -0.41528055 2.4336815
1.3339895 -0.41494569 2.4336812
1.3239681 -0.40401956 2.4336812
1.3339895 -0.4035643 2.4336812
1.3263974 -0.39370045 2.4336812
1.3351395 -0.39399076 2.4336812
1.3430998 -0.39673549 2.4336812
1.3294343 -0.3853541 2.4336812
1.3355335 -0.38394976 2.4336812
1.3432081 -0.38114113 2.4336812
1.3386214 -0.37426513 2.4336812
1.3432081 -0.37655711 2.4336812
1.3358115 -0.36395714 2.4336812
1.3430998 -0.36259139 2.4336812
1.336267 -0.35348627 2.4336812
1.3430998 -0.3534863 2.4336812
1.336267 -0.34438121 2.4336812
1.3430998 -0.34438118 2.4336812
1.3370264 -0.33603486 2.4336812
1.3448603 -0.33342448 2.4336812
1.3386214 -0.32384104 2.4336812
1.3456788 -0.32580084 2.4336812
1.3453774 -0.31478962 2.4336815
1.3453774 -0.30340827 2.4336812
1.3522103 -0.30340827 2.4336812
1.3461832 -0.29498112 2.4336815
1.3522103 -0.29430318 2.4336812
1.3464134 -0.2850605 2.4336812
1.3522103 -0.28519809 2.4336812
1.3461832 -0.27520096 2.4336815
1.3522103 -0.27836925 2.4336812
1.3459818 -0.26459596 2.4336812
1.3453774 -0.25333026 2.4336812
1.3477948 -0.2482049 2.4336812
1.315688 -0.4728213 2.4503198
1.3218036 -0.47434926 2.4503198
1.315688 -0.46823728 2.4503198
1.3222306 -0.46744275 2.4503198
1.315688 -0.45677727 2.4503198
1.3195702 -0.44588691 2.4503198
1.3195702 -0.43665969 2.4503198
1.3176291 -0.42836022 2.4503198
1.3241866 -0.42281884 2.4503198
1.3244214 -0.4134708 2.4503198
1.3268321 -0.40765816 2.4503198
1.3334191 -0.40667117 2.4503198
1.3276134 -0.39580995 2.4503198
1.3334191 -0.39283031 2.4503198
1.335512 -0.38538057 2.4503198
1.329448 -0.37426513 2.4503198
1.3340347 -0.37426513 2.4503198
1.329448 -0.36509711 2.4503198
1.3353585 -0.3658832 2.4503198
1.3426517 -0.360535 2.4503198
1.3386214 -0.35592908 2.4503198
1.3426517 -0.35592136 2.4503198
1.3386214 -0.34676108 2.4503198
1.3366921 -0.3352071 2.4503198
1.344084 -0.33523795 2.4503198
1.3364967 -0.32516393 2.4503198
1.3430227 -0.32376939 2.4503198
1.3279788 -0.31454331 2.4503198
1.3371742 -0.31684271 2.4503198
1.3445514 -0.31535053 2.4503198
1.3271546 -0.30779701 2.4503198
1.3360276 -0.30418491 2.4503195
1.3449315 -0.3045156 2.4503198
1.3366919 -0.29453734 2.4503198
1.3430227 -0.29620612 2.4503198
1.3369949 -0.28594768 2.4503198
1.3430691 -0.28418359 2.4503198
1.3370924 -0.27265295 2.4503198
1.3432081 -0.27341694 2.4503198
1.336328 -0.26424894 2.4503198
1.3432081 -0.26424894 2.4503198
1.3477948 -0.25508091 2.4503198
1.3518844 -0.25903538 2.4503198
1.3239207 -0.4930557 2.465977
1.3195703 -0.48510265 2.4659772
1.3240536 -0.48444983 2.465977
1.3185281 -0.474399 2.465977
1.3239207 -0.47912049 2.465977
1.3149539 -0.46434137 2.465977
1.3239207 -0.46054018 2.465977
1.3194711 -0.45537445 2.4659772
1.32535 -0.45381713 2.4659772
1.3239207 -0.44428241 2.465977
1.3239207 -0.43499225 2.465977
1.3285685 -0.4257021 2.465977
1.3263775 -0.41500962 2.465977
1.3268626 -0.40314794 2.465977
1.3264947 -0.39513713 2.465977
1.3195702 -0.38360307 2.465977
1.3264947 -0.38590989 2.465977
1.3334191 -0.38360307 2.465977
1.3195702 -0.37898946 2.465977
1.3269094 -0.37673187 2.465977
1.3334191 -0.37668264 2.465977
1.3264947 -0.36976221 2.465977
1.3356026 -0.36372238 2.465977
1.3367878 -0.3559815 2.465977
1.3425584 -0.35445318 2.4659772
1.3262446 -0.34441319 2.465977
1.3367878 -0.34440026 2.465977
1.3425817 -0.34556153 2.465977
1.3192729 -0.33280051 2.465977
1.3262446 -0.33512306 2.465977
1.3350754 -0.33605206 2.465977
1.3271416 -0.3247242 2.465977
1.3334191 -0.32823965 2.465977
1.3241866 -0.31670561 2.465977
1.3288028 -0.30517158 2.4659772
1.337864 -0.29563987 2.465977
1.3448358 -0.28634971 2.465977
1.3456571 -0.27720302 2.4659772
1.3380355 -0.26595581 2.465977
1.34496 -0.25672859 2.465977
1.3518844 -0.25442177 2.465977
1.3355402 -0.24222147 2.465977
1.3441906 -0.24827027 2.4659772
1.3518844 -0.24980815 2.465977
1.3258686 -0.50107163 2.4826107
1.316949 -0.4930557 2.4826107
1.3175826 -0.48562667 2.4826107
1.3239207 -0.48376557 2.4826107
1.3167375 -0.47607434 2.4826107
1.3168433 -0.4659729 2.4826107
1.323529 -0.46365938 2.4826107
1.323529 -0.45664456 2.4826107
1.3282083 -0.4449532 2.4826107
1.3282083 -0.43560013 2.4826107
1.3260646 -0.42480543 2.4826107
1.3261546 -0.41478264 2.4826107
1.3261247 -0.40570793 2.4826107
1.3268993 -0.3940742 2.4826107
1.3192729 -0.38389635 2.4826107
1.3239207 -0.38389635 2.4826107
1.3192729 -0.37460619 2.4826107
1.3261546 -0.37290615 2.4826107
1.3264177 -0.36403817 2.4826107
1.3260566 -0.35489327 2.4826107
1.3355402 -0.35370335 2.4826107
1.3192729 -0.34441319 2.4826107
1.3248868 -0.34673294 2.4826107
1.3355402 -0.34905827 2.4826107
1.3172446 -0.33509564 2.4826107
1.3173293 -0.32441622 2.4826107
1.3239207 -0.32118779 2.4826107
1.3192729 -0.31654271 2.4826107
1.3260541 -0.31528169 2.4826107
1.3330519 -0.31295389 2.4826107
1.3272185 -0.30713183 2.4826107
1.3330519 -0.30596268 2.4826107
1.3285685 -0.29563987 2.4826107
1.3330191 -0.29543835 2.4826107
1.3285685 -0.28634971 2.4826107
1.3350719 -0.28484267 2.4826107
1.3425118 -0.28402719 2.4826107
1.3356959 -0.27483764 2.4826107
1.3425119 -0.27473706 2.4826107
1.337864 -0.26544687 2.4826107
1.3442178 -0.26372597 2.4826107
1.3516046 -0.26256818 2.4826107
1.3454437 -0.25498033 2.4826107
1.3516046 -0.25555336 2.4826107
1.3454437 -0.24798124 2.4826107
1.3516046 -0.24853857 2.4826107
1.3063717 -0.50263047 2.4992418
1.3165102 -0.50107163 2.4992418
1.3094913 -0.49639511 2.4992418
1.3161532 -0.49522865 2.4992421
1.3071516 -0.48470378 2.4992418
1.3141491 -0.48349974 2.4992418
1.3094913 -0.47535074 2.4992418
1.3150743 -0.47408542 2.4992418
1.3176645 -0.46530241 2.4992418
1.3235314 -0.46696204 2.4992418
1.316972 -0.45682412 2.4992418
1.3258877 -0.45283249 2.4992418
1.324877 -0.44541866 2.4992421
1.3188498 -0.43326187 2.4992418
1.3244658 -0.43402869 2.4992418
1.3172797 -0.42491531 2.4992418
1.323529 -0.42390877 2.4992418
1.3188313 -0.41491446 2.4992418
1.3243101 -0.4152444 2.4992418
1.3188498 -0.40754089 2.4992418
1.3247083 -0.40546831 2.4992418
1.3329566 -0.40102413 2.4992418
1.3329566 -0.39631429 2.4992418
1.323529 -0.38649648 2.4992418
1.323529 -0.37480515 2.4992418
1.3328923 -0.37065831 2.4992418
1.3188498 -0.3607755 2.4992418
1.3251015 -0.36561751 2.4992418
1.3188343 -0.35502064 2.4992418
1.3235314 -0.35628057 2.4992418
1.3188343 -0.34563425 2.4992418
1.3235314 -0.34686086 2.4992418
1.3164947 -0.33624786 2.4992418
1.3157303 -0.32492206 2.4992418
1.3094913 -0.31634837 2.4992418
1.3165102 -0.31634837 2.4992418
1.3094913 -0.3069953 2.4992418
1.3169719 -0.30601969 2.4992418
1.3258781 -0.30338717 2.4992418
1.3188343 -0.29166251 2.4992418
1.3253788 -0.2946721 2.4992416
1.3188343 -0.2846227 2.4992418
1.3250897 -0.28428602 2.4992418
1.3282202 -0.27569571 2.4992418
1.332922 -0.27524465 2.4992418
1.3165102 -0.26256818 2.4992418
1.3258877 -0.26914832 2.4992418
1.3360412 -0.26553544 2.4992418
1.3165102 -0.25789165 2.4992418
1.3357157 -0.25638843 2.4992418
1.3352273 -0.24620029 2.4992418
1.2976121 -0.50464082 2.5168483
1.3077458 -0.50424951 2.5168483
