# .PCD v0.7 - Point Cloud Data file format
VERSION 0.7
FIELDS x y z
SIZE 4 4 4
TYPE F F F
COUNT 1 1 1
WIDTH 387
HEIGHT 1
VIEWPOINT 0 0 0 1 0 0 0
POINTS 387
DATA ascii
-1.1094571 -1.0988957 2.4826107
-1.0641026 -1.0801795 2.4826107
-1.0583678 -1.08332 2.4826107
-1.0783277 -1.0728704 2.4826107
-1.0641026 -1.075403 2.4826107
-1.0576509 -1.0745693 2.4826107
-1.133402 -1.0610735 2.4826107
-1.0906428 -1.0609387 2.4826107
-1.073517 -1.0680624 2.4826107
-1.0664923 -1.06585 2.4826107
-1.1349227 -1.0512521 2.4826107
-1.0906428 -1.0560975 2.4826107
-1.0808301 -1.0515206 2.4826107
-1.0760509 -1.0515206 2.4826107
-1.0927598 -1.0488307 2.4826107
-1.0847963 -1.0474397 2.4826107
-1.1144068 -1.0988957 2.4992418
-1.0769989 -1.0910845 2.4992418
-1.1254365 -1.0849559 2.4992418
-1.1166747 -1.0873442 2.4992418
-1.0960441 -1.0844474 2.4992421
-1.0837952 -1.0831761 2.4992418
-1.0755074 -1.0826159 2.4992418
-1.054274 -1.0848902 2.4992418
-1.0494633 -1.0848902 2.4992418
-1.0354271 -1.0801795 2.4992418
-1.1468543 -1.0726463 2.4992418
-1.133402 -1.0730147 2.4992418
-1.1286227 -1.075403 2.4992418
-1.1047264 -1.0706265 2.4992418
-1.0961237 -1.0734924 2.4992418
-1.0831791 -1.0753386 2.4992418
-1.0752168 -1.0761615 2.4992418
-1.0640336 -1.0713744 2.4992418
-1.0558776 -1.0744731 2.4992418
-1.0494633 -1.0752743 2.4992418
-1.0354271 -1.075403 2.4992418
-1.1468543 -1.067903 2.4992418
-1.1347249 -1.0651894 2.4992418
-1.1286227 -1.06585 2.4992418
-1.1047264 -1.06585 2.4992418
-1.0975575 -1.06585 2.4992418
-1.0827843 -1.0631599 2.4992418
-1.0756654 -1.0631599 2.4992418
-1.0652096 -1.0669563 2.4992418
-1.1411562 -1.0556934 2.4992418
-1.1364436 -1.0556934 2.4992418
-1.1286227 -1.0562971 2.4992418
-1.0903887 -1.0515206 2.4992418
-1.0830746 -1.0554116 2.4992418
-1.0756654 -1.0584167 2.4992418
-1.0935731 -1.0465326 2.4992418
-1.0879492 -1.0440228 2.4992418
-1.1094571 -1.093949 2.5168483
-1.1312457 -1.0824863 2.5168483
-1.1238434 -1.0801795 2.5168483
-1.1166747 -1.0801795 2.5168483
-1.107116 -1.084956 2.5168486
-1.0966567 -1.0861729 2.5168483
-1.0326257 -1.0848902 2.5168483
-1.1312457 -1.0776783 2.5168483
-1.1286227 -1.0706265 2.5168483
-1.1166747 -1.0730147 2.5168483
-1.1079125 -1.0738108 2.5168483
-1.0446525 -1.0752743 2.5168483
-1.0362337 -1.0752743 2.5168483
-1.0254096 -1.0776783 2.5168483
-1.1331177 -1.0679827 2.5168483
-1.1238434 -1.06585 2.5168483
-1.1157403 -1.064382 2.5168483
-1.1095057 -1.0634618 2.5168483
-1.1238434 -1.0562971 2.5168483
-1.1161746 -1.0528445 2.5168483
-1.1054497 -1.0547774 2.5168483
-1.0952528 -1.0514325 2.5168483
-1.1326315 -1.0481544 2.5168483
-1.1253473 -1.0442271 2.5168483
-1.1170089 -1.0459347 2.5168483
-1.1037698 -1.0476228 2.5168483
-1.0975707 -1.0440228 2.5168483
-1.1151279 -1.0362737 2.5168483
-1.1144068 -1.093949 2.5344524
-1.0543122 -1.0754625 2.5344524
-1.0446241 -1.0754625 2.5344524
-1.0342032 -1.0753372 2.5344524
-1.0222025 -1.0744731 2.5344524
-1.126435 -1.0632546 2.5344524
-1.1310577 -1.0567036 2.5344524
-1.1243637 -1.0549347 2.5344524
-1.1143067 -1.0528691 2.5344524
-1.107116 -1.0515206 2.5344524
-1.0985641 -1.054015 2.5344524
-1.0857987 -1.0560975 2.5344524
-1.1240296 -1.0488307 2.5344524
-1.1144068 -1.0345882 2.5344524
-1.1144068 -1.0296415 2.5344524
-1.1015711 -1.0247784 2.5344524
-1.0978118 -1.0223942 2.5344524
-1.1015711 -1.017411 2.5344524
-1.0966567 -1.017411 2.5344524
-1.0847092 -1.0098546 2.5344524
-1.1015711 -1.0812614 2.5520535
-1.0943358 -1.0821928 2.5520535
-1.0855637 -1.0839272 2.5520535
-1.0764598 -1.0857046 2.5520535
-1.0525366 -1.0840555 2.5520535
-1.0229686 -1.0839728 2.5520535
-1.0118436 -1.084738 2.5520535
-1.0058584 -1.0857117 2.5520535
-1.1015711 -1.0763499 2.5520535
-1.0933805 -1.0747126 2.5520535
-1.0543122 -1.0706213 2.5520535
-1.044044 -1.0734856 2.5520535
-1.032514 -1.0754625 2.5520535
-1.0276699 -1.0754625 2.5520535
-1.0133827 -1.0776783 2.5520535
-1.0917423 -1.0665267 2.5520535
-1.0842109 -1.06397 2.5520535
-1.1310577 -1.051792 2.5520535
-1.1245052 -1.0534294 2.5520535
-1.1138573 -1.0542479 2.5520535
-1.0936849 -1.054015 2.5520535
-1.0868342 -1.0545444 2.5520535
-1.0790472 -1.054015 2.5520535
-1.1252422 -1.0481544 2.5520535
-1.1162909 -1.0484824 2.5520535
-1.107404 -1.0480095 2.5520535
-1.0961245 -1.0491387 2.5520535
-1.0863661 -1.0491387 2.5520535
-1.0790472 -1.0491387 2.5520535
-1.1193564 -1.0345882 2.5520535
-0.97086799 -1.0395349 2.5520535
-0.96888137 -1.0321457 2.5520535
-0.96642417 -1.0272342 2.5520535
-0.9590525 -1.0223225 2.5520535
-1.0847092 -1.0148013 2.5520535
-0.96632302 -1.0159137 2.5520535
-0.9590525 -1.017411 2.5520535
-1.0720845 -1.0026762 2.5520535
-1.0155685 -1.1107308 2.5686741
-1.0081969 -1.1107308 2.5686741
-1.0155685 -1.1058192 2.5686741
-1.0081969 -1.1058192 2.5686741
-1.0228258 -1.0948274 2.5686741
-1.0131377 -1.0948274 2.5686741
-1.0082936 -1.0948274 2.5686741
-0.99836802 -1.0935403 2.5686741
-0.91147268 -1.093949 2.5686741
-0.9040482 -1.093949 2.5686741
-1.0720845 -1.0812614 2.5686741
-1.0656755 -1.0831242 2.5686741
-1.0565765 -1.0821929 2.5686741
-1.0450552 -1.0812614 2.5686741
-1.0376835 -1.0812614 2.5686741
-1.0143487 -1.0839347 2.5686741
-1.0046364 -1.0854284 2.5686741
-0.99609995 -1.0857117 2.5686741
-0.91147268 -1.0890023 2.5686741
-0.9040482 -1.0890023 2.5686741
-1.0843706 -1.0714383 2.5686741
-1.0745418 -1.0714383 2.5686741
-1.0647129 -1.0714383 2.5686741
-1.054884 -1.0714383 2.5686741
-1.0327318 -1.0761455 2.5686741
-1.0253689 -1.0736722 2.5686741
-1.0143685 -1.0745003 2.5686741
-1.0050437 -1.0774189 2.5686741
-1.0868278 -1.0665267 2.5686741
-1.0769989 -1.0665267 2.5686741
-1.0622556 -1.0640709 2.5686741
-1.054884 -1.0640709 2.5686741
-1.0450552 -1.0640709 2.5686741
-1.0327691 -1.0640709 2.5686741
-1.0253974 -1.0640709 2.5686741
-1.0131773 -1.0686443 2.5686741
-1.1114 -1.051792 2.5686741
-1.1015711 -1.051792 2.5686741
-1.0647129 -1.0542479 2.5686741
-1.054884 -1.0542479 2.5686741
-1.0475124 -1.0542479 2.5686741
-1.1342052 -1.0444816 2.5686741
-1.1259559 -1.0461305 2.5686741
-1.1148925 -1.0463179 2.5686741
-1.1015711 -1.0444245 2.5686741
-1.0985641 -1.0442623 2.5686741
-1.0863661 -1.0442623 2.5686741
-1.0766076 -1.0467005 2.5686741
-1.0622556 -1.0444245 2.5686741
-1.054884 -1.0444245 2.5686741
-0.97233194 -1.0432253 2.5686741
-0.96888137 -1.0419688 2.5686741
-1.1342052 -1.0395349 2.5686741
-1.1243061 -1.0395349 2.5686741
-1.1168816 -1.0395349 2.5686741
-1.0863661 -1.0369476 2.5686741
-1.074168 -1.0345094 2.5686741
-1.0660357 -1.036135 2.5686741
-1.0571625 -1.0369842 2.5686741
-0.97543401 -1.033783 2.5686741
-0.96888137 -1.0370573 2.5686741
-1.1144068 -1.0246947 2.5686741
-1.0966567 -1.0247784 2.5686741
-1.074168 -1.029633 2.5686741
-0.97543401 -1.025597 2.5686741
-0.96460575 -1.0231133 2.5686741
-0.95818567 -1.0223942 2.5686741
-1.0769989 -1.0149553 2.5686741
-0.97379589 -1.0149553 2.5686741
-0.96261871 -1.0164502 2.5686741
-0.95601922 -1.0172746 2.5686741
-1.0644094 -1.0052509 2.5686741
-0.96642417 -1.0075879 2.5686741
-0.95354438 -1.0098546 2.5686741
-1.0032824 -1.1107308 2.5862701
-0.99591082 -1.1107308 2.5862701
-0.98608196 -1.1107308 2.5862701
-0.97625309 -1.1107308 2.5862701
-0.96396697 -1.1107308 2.5862701
-0.9565953 -1.1107308 2.5862701
-0.94676644 -1.1107308 2.5862701
-0.93693757 -1.1107308 2.5862701
-0.92956591 -1.1107308 2.5862701
-0.91727984 -1.1107308 2.5862701
-0.90499377 -1.1107309 2.5862701
-1.0032824 -1.1058192 2.5862701
-0.99591076 -1.1033635 2.5862701
-0.98608196 -1.1058192 2.5862701
-0.97356057 -1.1060675 2.5862701
-0.9635483 -1.1062164 2.5862701
-0.95640326 -1.1068093 2.5862701
-0.94594735 -1.1041821 2.5862701
-0.93775666 -1.1041821 2.5862701
-0.92553639 -1.105536 2.5862703
-0.91505831 -1.1061503 2.5862703
-0.90431684 -1.1044415 2.5862701
-1.0107377 -1.0930263 2.5862701
-1.0034188 -1.0930263 2.5862701
-0.99609995 -1.0930263 2.5862701
-0.98324203 -1.0964223 2.5862701
-0.97334278 -1.0964223 2.5862701
-0.96344358 -1.0964223 2.5862701
-0.95601922 -1.093949 2.5862701
-0.94676644 -1.0935403 2.5862701
-0.93939477 -1.0935403 2.5862701
-0.92384672 -1.0988957 2.5862701
-0.91477245 -1.0972469 2.5862701
-0.9040482 -1.0988957 2.5862701
-1.0451123 -1.0840555 2.5862701
-1.0044296 -1.0846002 2.5862701
-0.99345362 -1.0812614 2.5862701
-0.98421478 -1.0866597 2.5862701
-0.97334278 -1.0865289 2.5862701
-0.96344358 -1.0865289 2.5862701
-0.95601922 -1.0890023 2.5862701
-0.92302179 -1.0857046 2.5862701
-0.91477245 -1.0857046 2.5862701
-1.0376835 -1.0714383 2.5862701
-1.0229359 -1.0735207 2.5862701
-1.0155685 -1.0714383 2.5862701
-1.0043375 -1.0745324 2.5862703
-0.9950555 -1.0756205 2.5862701
-0.98571682 -1.0791087 2.5862701
-0.97334278 -1.0791087 2.5862701
-0.96344364 -1.0791087 2.5862701
-0.92384672 -1.0791087 2.5862701
-0.91394746 -1.0791087 2.5862701
-0.90007937 -1.0714383 2.5862701
-1.0737227 -1.0632523 2.5862701
-1.0671701 -1.0640709 2.5862701
-1.0376835 -1.0640709 2.5862701
-1.0155685 -1.0640708 2.5862701
-1.0074174 -1.0655954 2.5862701
-1.0720845 -1.0542479 2.5862701
-1.0425979 -1.0542479 2.5862701
-1.0352263 -1.0542479 2.5862701
-1.0253974 -1.0542479 2.5862701
-1.0155377 -1.0542734 2.5862701
-1.0081969 -1.0542479 2.5862701
-0.99066645 -1.0543752 2.5862701
-0.97581762 -1.0543752 2.5862701
-1.0868278 -1.0444245 2.5862701
-1.074168 -1.0442623 2.5862701
-1.0692887 -1.0467005 2.5862701
-1.0450666 -1.044436 2.5862701
-1.0376835 -1.0444245 2.5862701
-1.0229402 -1.0444245 2.5862701
-1.0140187 -1.0459279 2.5862701
-1.0055153 -1.046955 2.5862701
-0.99345362 -1.0444245 2.5862701
-0.98690104 -1.043606 2.5862701
-0.97478914 -1.0456986 2.5862701
-1.1015711 -1.0346014 2.5862701
-1.0941994 -1.0346014 2.5862701
-1.0868278 -1.0346014 2.5862701
-1.074168 -1.0393858 2.5862701
-1.0692887 -1.0393858 2.5862701
-1.0500618 -1.0370616 2.5862701
-1.0458744 -1.0354202 2.5862701
-1.0005656 -1.0345882 2.5862701
-0.99453485 -1.0358227 2.5862701
-0.98608196 -1.0346014 2.5862701
-0.97871029 -1.0370573 2.5862701
-1.074168 -1.0247566 2.5862701
-1.0450552 -1.0247784 2.5862701
-0.99314129 -1.0296415 2.5862701
-0.98362476 -1.0272342 2.5862701
-0.97871029 -1.0223225 2.5862701
-0.95612574 -1.0248141 2.5862701
-1.0425979 -1.0149553 2.5862701
-0.97871029 -1.0149553 2.5862701
-1.0644094 -1.0003746 2.5862701
-1.0595301 -1.0003746 2.5862701
-0.96460569 -1.005069 2.5862701
-0.9590525 -1.0026762 2.5862701
-0.94611996 -1.0098546 2.5862701
-0.96642417 -0.99776471 2.5862701
-0.99383807 -1.0858215 2.6048405
-0.99326223 -1.076475 2.6048405
-0.98324203 -1.074162 2.6048405
-0.97334278 -1.074162 2.6048405
-0.96344364 -1.074162 2.6048405
-1.0032824 -1.0640709 2.6048405
-0.99416274 -1.0649612 2.6048405
-0.98500776 -1.0658517 2.6048405
-0.97334278 -1.0667419 2.6048405
-0.96344358 -1.0667419 2.6048405
-0.95354438 -1.0667419 2.6048405
-0.94364518 -1.0667419 2.6048405
-1.0104649 -1.0543752 2.6048405
-1.0040268 -1.0542903 2.6048408
-0.9948619 -1.0552627 2.6048405
-0.98500776 -1.0559816 2.6048405
-0.97251785 -1.057673 2.6048408
-0.96344364 -1.0593219 2.6048405
-0.95106959 -1.0593219 2.6048405
-0.94611996 -1.0593219 2.6048405
-1.0401626 -1.0444816 2.6048405
-1.0335838 -1.0444436 2.6048408
-1.0241094 -1.0456898 2.6048405
-1.0154145 -1.046955 2.6048405
-1.0426373 -1.0370616 2.6048405
-1.0336517 -1.0371562 2.6048405
-1.0228592 -1.0370607 2.6048405
-1.0139569 -1.0370607 2.6048405
-1.0055153 -1.0370616 2.6048405
-0.99345362 -1.0321457 2.6048405
-1.0434874 -1.0258342 2.6048405
-1.0203642 -1.027168 2.6048405
-1.0129397 -1.027168 2.6048405
-1.0022156 -1.0279926 2.6048408
-0.99561608 -1.0246947 2.6048405
-0.9541381 -1.0272342 2.6048405
-1.0500618 -1.0148013 2.6048405
-1.0445831 -1.0179269 2.6048405
-0.99561608 -1.019748 2.6048405
-0.98362476 -1.0149553 2.6048405
-0.94117033 -1.0148013 2.6048405
-1.0603608 -1.009532 2.6048405
-1.055339 -1.0070225 2.6048405
-0.98608196 -1.0026762 2.6048405
-0.97625309 -1.0051321 2.6048405
-0.96096879 -1.0049078 2.6048405
-0.95354438 -1.0049078 2.6048405
-0.94282025 -1.0065567 2.6048408
-1.0429586 -0.99498355 2.6048405
-1.0302633 -0.9900676 2.6048405
-1.0228391 -0.99501437 2.6048405
-0.99591082 -0.99285316 2.6048405
-0.98513532 -0.99356186 2.6048405
-0.97465235 -0.99518269 2.6048405
-0.96422052 -0.99470556 2.6048405
-0.9590525 -0.99776471 2.6048405
-1.0302633 -0.98264754 2.6048405
-1.022839 -0.98264754 2.6048405
-1.0129397 -0.98264754 2.6048405
-1.0038464 -0.98351312 2.6048405
-0.99581259 -0.98453969 2.6048405
-0.98608196 -0.98548579 2.6048405
-0.97625309 -0.98794156 2.6048405
-0.96888137 -0.98794156 2.6048405
-1.0302633 -0.97522742 2.6048405
-1.022839 -0.97275406 2.6048405
-1.0137646 -0.97357857 2.6048408
-1.0030406 -0.97522742 2.6048405
-0.99561608 -0.97522742 2.6048405
-1.022839 -0.96533394 2.6048405
-1.0154145 -0.96533394 2.6048405
