# .PCD v0.7 - Point Cloud Data file format
VERSION 0.7
FIELDS x y z
SIZE 4 4 4
TYPE F F F
COUNT 1 1 1
WIDTH 317
HEIGHT 1
VIEWPOINT 0 0 0 1 0 0 0
POINTS 317
DATA ascii
1.2471559 -0.93330622 2.2004855
1.2564946 -0.93243474 2.2004855
1.2471559 -0.92710203 2.2004855
1.2564946 -0.92405879 2.2004855
1.2378446 -0.91554135 2.2004855
1.2445575 -0.91304934 2.2004855
1.2564946 -0.91777682 2.2004855
1.2378446 -0.90526104 2.2004855
1.2469546 -0.90574104 2.2004855
1.2555261 -0.90001291 2.2004855
1.2471559 -0.89814895 2.2004855
1.2564946 -0.94499862 2.2132356
1.2564946 -0.93871671 2.2132356
1.2492766 -0.90209484 2.2132356
1.2562206 -0.89446104 2.2132356
1.2606851 -0.89264899 2.2132356
1.2576092 -0.88752115 2.2132356
1.2627803 -0.88846105 2.2132356
1.2523043 -0.94499862 2.2279453
1.2523043 -0.93871671 2.2279453
1.2564946 -0.90102494 2.2279453
1.2634439 -0.89658427 2.2279453
1.2659169 -0.88468444 2.2279453
1.2753687 -0.88381076 2.2279453
1.2753687 -0.87748712 2.2279453
1.2481139 -0.94499862 2.2406921
1.2481139 -0.93452877 2.2406921
1.2523043 -0.93243474 2.2406921
1.2481139 -0.92615277 2.2406921
1.2523043 -0.92405879 2.2406921
1.2523043 -0.91777682 2.2406921
1.264202 -0.91591489 2.2406921
1.2648232 -0.90278155 2.2406921
1.2616596 -0.89329612 2.2406921
1.2648232 -0.88451338 2.2406921
1.2690414 -0.87537926 2.2406921
1.2753687 -0.87327141 2.2406921
1.2764232 -0.86589384 2.2406921
1.2774777 -0.85640848 2.2406921
1.2521687 -0.95337033 2.2553985
1.2521687 -0.9449389 2.2553985
1.2521687 -0.93439955 2.2553985
1.2563869 -0.92596805 2.2553985
1.2718297 -0.92454696 2.2553985
1.2739648 -0.91387808 2.2553985
1.2718297 -0.90747678 2.2553985
1.267799 -0.88673455 2.2553985
1.2720413 -0.88461465 2.2553985
1.2690414 -0.86905569 2.2553985
1.2774777 -0.85219276 2.2553985
1.2550724 -0.95457125 2.2681425
1.2550722 -0.94397175 2.2681425
1.2635567 -0.92489266 2.2681425
1.2718297 -0.91814566 2.2681425
1.2718297 -0.89467412 2.2681425
1.267799 -0.88249475 2.2681425
1.267799 -0.87613511 2.2681425
1.2740705 -0.87473571 2.2681425
1.2720413 -0.86977541 2.2681425
1.2675598 -0.93521583 2.282845
1.2675596 -0.92454696 2.282845
1.2675596 -0.91814566 2.282845
1.2752552 -0.91513288 2.282845
1.2735424 -0.90381068 2.282845
1.2718297 -0.88613904 2.282845
1.2675596 -0.87973768 2.282845
1.2718298 -0.87547016 2.282845
1.2666632 -0.97094786 2.296566
1.2666632 -0.96236092 2.296566
1.2666632 -0.95806748 2.296566
1.2748529 -0.95994067 2.296566
1.2725166 -0.9450388 2.296566
1.2666632 -0.93230671 2.296566
1.2709591 -0.93445343 2.296566
1.2666632 -0.92801327 2.296566
1.2742757 -0.92481589 2.296566
1.2760413 -0.91632259 2.296566
1.277216 -0.90516925 2.296566
1.2752552 -0.89581227 2.296566
1.2752552 -0.88937211 2.296566
1.2780943 -0.98102742 2.3112648
1.2824736 -0.98102742 2.3112648
1.2780943 -0.97665066 2.3112648
1.2824736 -0.97665066 2.3112648
1.27461 -0.96517766 2.3112648
1.2767719 -0.95434684 2.3112648
1.2786911 -0.9443624 2.3112648
1.2786909 -0.93348992 2.3112648
1.2786909 -0.92479199 2.3112648
1.2767719 -0.91533786 2.3112648
1.2762941 -0.90520519 2.3112648
1.2774471 -0.89598656 2.3112648
1.2830426 -0.89652365 2.3112648
1.2693357 -0.98102742 2.3259618
1.273715 -0.98102742 2.3259618
1.2693357 -0.97665066 2.3259618
1.2759047 -0.97446227 2.3259618
1.2824736 -0.97227395 2.3259618
1.2824736 -0.96570885 2.3259618
1.2759047 -0.9525786 2.3259618
1.2824736 -0.95476699 2.3259618
1.275383 -0.94109571 2.3259618
1.2678123 -0.93131548 2.3259618
1.2743394 -0.93348992 2.3259618
1.2685375 -0.92551684 2.3259618
1.2741313 -0.92603016 2.3259618
1.27579 -0.91536921 2.3259618
1.2699879 -0.90522158 2.3259618
1.2777013 -0.9054963 2.3259618
1.2868528 -0.90224612 2.3259618
1.2779233 -0.97444528 2.3406568
1.2823322 -0.97664845 2.3406568
1.2761112 -0.9640938 2.3406568
1.2753522 -0.95686817 2.3406568
1.2660221 -0.94555342 2.3406568
1.2751079 -0.9466781 2.3406568
1.2561978 -0.93507171 2.3406568
1.2649082 -0.93539417 2.3406568
1.2649564 -0.92741239 2.3406568
1.2759047 -0.92412984 2.3406568
1.2671461 -0.91756475 2.3406568
1.2754668 -0.91625166 2.3406568
1.2824736 -0.9109996 2.3406568
1.2780943 -0.90662289 2.3406568
1.2682271 -0.99388647 2.3563297
1.2748821 -0.99388647 2.3563297
1.2815372 -0.99388647 2.3563297
1.2682271 -0.98723537 2.3563297
1.2741427 -0.98797441 2.3563297
1.2815372 -0.98945242 2.3563297
1.2691054 -0.97444534 2.3563297
1.2735143 -0.97444534 2.3563297
1.2673337 -0.96323556 2.3563297
1.2726638 -0.96284783 2.3563297
1.2581954 -0.95493567 2.3563297
1.2661662 -0.9538824 2.3563297
1.2726638 -0.95841372 2.3563297
1.257037 -0.94705123 2.3563297
1.2558787 -0.93919456 2.3563297
1.2645502 -0.93208849 2.3563299
1.2779232 -0.93038189 2.3563297
1.266901 -0.92377234 2.3563297
1.2726638 -0.92294085 2.3563297
1.2691054 -0.91716284 2.3563297
1.2761793 -0.91540307 2.3563299
1.2832812 -0.913634 2.3563297
1.29115 -0.9127565 2.3563297
1.2748821 -0.90742147 2.3563297
1.283471 -0.9076072 2.3563297
1.2904105 -0.90963852 2.3563297
1.2655303 -1.0005236 2.3710208
1.2722298 -1.0005236 2.3710208
1.2543645 -0.99605983 2.3710208
1.2655303 -0.99605983 2.3710208
1.2722298 -0.99605983 2.3710208
1.2682271 -0.9805842 2.3710208
1.2726638 -0.9805842 2.3710208
1.2563961 -0.97319406 2.3710208
1.2654666 -0.97389472 2.371021
1.2726638 -0.97393304 2.3710208
1.2593538 -0.96506488 2.3710208
1.2658855 -0.9666723 2.3710208
1.2726638 -0.96728194 2.3710208
1.254917 -0.95619667 2.3710208
1.2571354 -0.94511139 2.3710208
1.2637904 -0.94067729 2.3710208
1.2593538 -0.93624318 2.3710208
1.2651148 -0.93536127 2.3710208
1.2722298 -0.93356782 2.3710208
1.2682271 -0.9251579 2.3710208
1.2722299 -0.92464036 2.3710208
1.2682271 -0.91628969 2.3710208
1.2738633 -0.91441727 2.371021
1.2726638 -0.90077031 2.3710208
1.2576712 -1.0044999 2.3866892
1.2666594 -1.0044999 2.3866892
1.2569556 -0.99365175 2.3866892
1.2655303 -0.9915961 2.3866892
1.2722298 -0.9915961 2.3866892
1.2573421 -0.98564452 2.3866892
1.2662748 -0.98564452 2.3866892
1.2722298 -0.98713237 2.3866892
1.2588309 -0.97374123 2.3866892
1.2588309 -0.96481389 2.3866892
1.2704861 -0.96591127 2.3866892
1.2588309 -0.95365453 2.3866892
1.2750098 -0.95008743 2.3866892
1.2588309 -0.94472706 2.3866892
1.2632972 -0.94472706 2.3866892
1.2655303 -0.93579966 2.3866892
1.2732484 -0.93416232 2.3866892
1.2677635 -0.92464036 2.3866892
1.2677635 -0.91571295 2.3866892
1.2569149 -1.0133827 2.4013762
1.2614386 -1.0133827 2.4013762
1.2704861 -1.0133827 2.4013762
1.2614386 -1.0066011 2.4013762
1.2576712 -0.99327129 2.4013762
1.2659624 -0.99077719 2.4013762
1.2704861 -0.99077719 2.4013762
1.2576712 -0.98877978 2.4013762
1.2644124 -0.98653406 2.4013762
1.2704861 -0.98399556 2.4013762
1.2704861 -0.97495341 2.4013762
1.2704861 -0.95460856 2.4013762
1.2750098 -0.94330585 2.4013762
1.2750098 -0.93426359 2.4013762
1.2750099 -0.92748201 2.4013762
1.2611063 -1.0204345 2.4170406
1.2478675 -1.0066011 2.4170406
1.254653 -1.0066011 2.4170406
1.2569149 -0.99755883 2.4170406
1.2631277 -0.99533719 2.4170406
1.2643542 -0.98476052 2.4170408
1.2647562 -0.97664559 2.4170406
1.2702167 -0.97490901 2.4170406
1.2659624 -0.96591127 2.4170406
1.2702167 -0.96352768 2.4170406
1.2659624 -0.95460856 2.4170406
1.2702167 -0.95669883 2.4170406
1.2659624 -0.94330585 2.4170406
1.2704861 -0.94330585 2.4170406
1.2637005 -0.93426365 2.4170406
1.2704861 -0.93426359 2.4170406
1.2537678 -1.0320702 2.4336812
1.2606479 -1.0320702 2.4336812
1.245738 -1.0227851 2.4336812
1.2550327 -1.021952 2.4336812
1.2383302 -1.0136056 2.4336812
1.2451631 -1.0136056 2.4336812
1.2519958 -1.0136056 2.4336812
1.2383302 -1.0045006 2.4336812
1.2455081 -1.0045136 2.4336812
1.2542734 -1.0045006 2.4336812
1.2611063 -1.0045006 2.4336812
1.2459023 -0.99539667 2.4336812
1.2541049 -0.99386835 2.4336815
1.2609534 -0.99386835 2.4336812
1.2451631 -0.98856664 2.4336812
1.25431 -0.98527133 2.4336812
1.2623296 -0.98472226 2.4336815
1.2635196 -0.97432196 2.4336812
1.2641798 -0.96427357 2.4336812
1.2640299 -0.95583349 2.4336812
1.2702167 -0.95214623 2.4336812
1.256551 -0.94531739 2.4336812
1.2633839 -0.94531739 2.4336812
1.2702167 -0.94759369 2.4336812
1.2633839 -0.9384886 2.4336812
1.2462986 -1.0330967 2.4503198
1.2503256 -1.0341232 2.4503198
1.2438629 -1.0239733 2.4503198
1.2503256 -1.0295095 2.4503198
1.2424996 -1.014889 2.4503198
1.2377144 -1.0045661 2.4503198
1.2434372 -1.0051813 2.4503198
1.2377144 -0.99998212 2.4503198
1.2436644 -0.99520189 2.4503198
1.2453589 -0.98470211 2.4503198
1.2526338 -0.98568022 2.4503198
1.2566631 -0.97675753 2.4503198
1.2641746 -0.97645301 2.4503198
1.2727951 -0.97149873 2.4503198
1.2727951 -0.96453118 2.4503198
1.2687908 -0.95107812 2.4503198
1.2670126 -0.94571924 2.4503198
1.2533401 -0.9359898 2.4503198
1.2606479 -0.9358061 2.4503198
1.2341685 -1.03643 2.465977
1.2426318 -1.037199 2.4659772
1.2503256 -1.0387368 2.465977
1.2346302 -1.0258187 2.465977
1.2406768 -1.026052 2.465977
1.2364767 -1.0133619 2.465977
1.2402605 -1.0179496 2.465977
1.2364767 -1.0064415 2.465977
1.241093 -1.0041347 2.465977
1.2453246 -0.99829173 2.465977
1.2542039 -0.99472415 2.465977
1.2673779 -0.99210829 2.465977
1.2503256 -0.9833734 2.465977
1.2647923 -0.98455161 2.4659772
1.2681472 -0.97382128 2.465977
1.2681472 -0.96453118 2.465977
1.2681472 -0.95524102 2.465977
1.2727951 -0.95524102 2.465977
1.2681472 -0.94595087 2.465977
1.2727951 -0.94827342 2.465977
1.2681472 -0.93666071 2.465977
1.2727951 -0.93898326 2.465977
1.2247679 -1.0427233 2.4826107
1.2263172 -1.0342073 2.4826107
1.2332889 -1.0342073 2.4826107
1.2340635 -1.0256914 2.4826107
1.2402605 -1.0272397 2.4826107
1.2449083 -1.0086594 2.4826107
1.2495561 -0.99472415 2.4826107
1.2567476 -0.99299073 2.4826107
1.2626987 -0.99210829 2.4826107
1.2580193 -0.98743176 2.4826107
1.2650383 -0.98509347 2.4826107
1.2716928 -0.98975545 2.4826107
1.2292794 -0.97091603 2.4826107
1.2363484 -0.97091603 2.4826107
1.2654387 -0.9747808 2.4826107
1.2720572 -0.97340214 2.4826107
1.2292794 -0.96620619 2.4826107
1.2368902 -0.96690309 2.4826107
1.2450926 -0.96829671 2.4826107
1.2650383 -0.96872556 2.4826107
1.2720572 -0.96872556 2.4826107
1.2582968 -0.95721072 2.4826107
1.2637454 -0.95565712 2.4826107
1.2585742 -0.94418943 2.4826107
1.2632326 -0.94574821 2.4826107
1.2573025 -0.93588656 2.4826107
1.2634995 -0.93666071 2.4826107
