# .PCD v0.7 - Point Cloud Data file format
VERSION 0.7
FIELDS x y z
SIZE 4 4 4
TYPE F F F
COUNT 1 1 1
WIDTH 146
HEIGHT 1
VIEWPOINT 0 0 0 1 0 0 0
POINTS 146
DATA ascii
0.96898443 0.55472052 1.9127355
0.97261566 0.55472052 1.9127355
1.0597644 0.50391334 1.9235516
1.0670269 0.50572789 1.9235516
1.070658 0.50572789 1.9235516
1.0218903 0.51038945 1.9235516
1.0350511 0.51331931 1.9235516
1.0453278 0.51362795 1.9235517
1.0547225 0.51281506 1.9235516
1.0579488 0.52568787 1.9235516
1.0597644 0.53657508 1.9235516
1.0632747 0.53715205 1.9235516
0.95993823 0.55160886 1.9235516
1.0657091 0.47754446 1.9333835
1.058406 0.48484334 1.9333835
1.058406 0.49944115 1.9333835
1.0657091 0.49944115 1.9333835
1.0730122 0.49944115 1.9333835
1.016413 0.5049153 1.9333835
1.0327724 0.508448 1.9333835
1.0465982 0.50469542 1.9333835
1.0548729 0.50445467 1.9333838
1.0664721 0.50210977 1.9333835
1.0730789 0.50391334 1.9333835
1.015509 0.51446837 1.9333837
1.0218903 0.51403892 1.9333835
1.0636829 0.51320809 1.9333836
1.0733814 0.51389337 1.9333835
1.0156626 0.5242514 1.9333835
1.0218903 0.52863663 1.9333835
1.0307424 0.52398145 1.9333835
1.0633956 0.52205878 1.9333835
1.06551 0.53473157 1.9333836
1.0754466 0.53715205 1.9333835
1.0803154 0.53776026 1.9333835
0.9581328 0.54800016 1.9333835
1.0597644 0.54020417 1.9333835
1.0633956 0.54020417 1.9333835
0.95632738 0.55160886 1.9333835
1.0693606 0.47389504 1.9441977
1.0198213 0.48576793 1.9441977
1.0234524 0.48576793 1.9441977
1.0474513 0.48484334 1.9441977
1.0547545 0.48849282 1.9441977
1.0638833 0.48301864 1.9441977
1.0565802 0.49487934 1.9441977
1.0663823 0.49427661 1.9441977
1.0766637 0.49579173 1.9441977
1.0109355 0.5049153 1.9441977
1.0488708 0.50572789 1.9441977
1.0547544 0.50309056 1.9441977
1.0846974 0.5045504 1.9441977
1.0089276 0.51661515 1.9441977
1.0127614 0.51221418 1.9441977
1.0307424 0.51664555 1.9441977
1.0488708 0.51117152 1.9441977
1.0779204 0.51661515 1.9441977
1.0861578 0.513309 1.9441977
1.0089276 0.52205878 1.9441977
1.0145872 0.52863663 1.9441977
1.0255419 0.52863663 1.9441977
1.0344125 0.52214748 1.9441977
1.0456254 0.52863663 1.9441977
1.0547545 0.52863663 1.9441977
1.0693606 0.52863663 1.9441977
1.0748379 0.52681196 1.9441977
1.0830541 0.52498722 1.9441977
1.0237161 0.53228611 1.9441977
1.0430694 0.53374588 1.9441977
1.0536257 0.53428948 1.9441977
1.0644124 0.53653091 1.9441977
1.0670269 0.54020417 1.9441977
1.0766637 0.54323441 1.9441977
1.0803154 0.54323441 1.9441977
0.95809084 0.55290598 1.9441977
0.96898443 0.55109143 1.9441977
0.97261566 0.55109143 1.9441977
0.98172307 0.5560075 1.9441977
1.032845 0.48849282 1.9550109
1.0147491 0.49647656 1.9550111
1.0270723 0.49830583 1.9550109
1.0333259 0.49769068 1.9550109
1.0087218 0.50747567 1.9550109
1.0131632 0.50455135 1.955011
1.0260141 0.50074351 1.9550109
1.0336027 0.50521088 1.9550109
1.007284 0.51768833 1.9550109
1.0116637 0.51533759 1.9550109
1.0344125 0.51664555 1.9550109
1.0537679 0.51716697 1.9550109
0.97385609 0.52581543 1.9550109
0.98486632 0.52581543 1.9550109
1.0070192 0.52431673 1.9550111
1.0109355 0.52498722 1.9550109
1.0291934 0.52863663 1.9550109
1.036397 0.52605212 1.955011
1.043703 0.52631831 1.9550109
1.0533435 0.5247404 1.9550109
1.0864013 0.52742022 1.9550109
0.96711671 0.53776026 1.9550109
0.97076827 0.53776026 1.9550109
1.0074449 0.53247654 1.9550109
1.0160532 0.53604239 1.9550111
1.0260634 0.53697824 1.9550111
1.0355438 0.53455764 1.9550111
1.0419738 0.53958499 1.9550109
1.0511029 0.53958499 1.9550109
1.0730122 0.53228611 1.9550109
1.084576 0.53501368 1.9550111
1.0931338 0.53865325 1.9550109
0.96711671 0.54505914 1.9550109
0.97441995 0.54505914 1.9550111
0.98172307 0.54505914 1.9550109
1.0068867 0.54598916 1.9550111
1.0160621 0.54598916 1.9550111
1.0252373 0.54782313 1.9550109
1.0325775 0.54782313 1.9550109
1.0435877 0.54598916 1.9550109
1.0527629 0.54598916 1.9550109
1.083967 0.54323441 1.9550109
1.0931338 0.54232121 1.9550109
0.95689231 0.5563724 1.955011
0.96508759 0.5514639 1.9550109
0.97441995 0.55053329 1.9550109
0.9841575 0.55418277 1.9550109
0.9940415 0.55515903 1.9550109
1.0068867 0.55515903 1.9550109
1.0160621 0.55515903 1.9550111
1.0270723 0.55515897 1.9550109
1.0325775 0.55515897 1.9550109
0.9967941 0.56341189 1.9550109
1.0032167 0.56249487 1.9550109
1.0158062 0.56344616 1.9550111
1.0263141 0.56653881 1.9550109
1.0327724 0.56746089 1.9550109
1.0254576 0.57430148 1.9550111
0.92778724 0.54842126 1.9648401
0.93165004 0.54782313 1.9648401
0.96688288 0.54672277 1.9648402
0.97314358 0.54309839 1.9648402
0.92820966 0.55393714 1.9648402
0.93497539 0.55639595 1.9648401
0.94051111 0.55270767 1.9648401
0.96101069 0.55332506 1.9648401
0.96796703 0.5631755 1.9648401
1.0199186 0.5835731 1.9648401
