# .PCD v0.7 - Point Cloud Data file format
VERSION 0.7
FIELDS x y z
SIZE 4 4 4
TYPE F F F
COUNT 1 1 1
WIDTH 883
HEIGHT 1
VIEWPOINT 0 0 0 1 0 0 0
POINTS 883
DATA ascii
0.12237298 -0.34154835 0.81994611
0.054264203 -0.3392756 0.81994605
0.12257113 -0.33919188 0.81862247
0.10742676 -0.32316101 0.81954908
0.11071709 -0.3262285 0.8192842
0.10391392 -0.31726873 0.81994617
0.039633214 -0.30132449 0.8179605
0.041677501 -0.30106911 0.8179605
0.077097118 -0.29604572 0.81994605
-0.00099695404 -0.21398219 0.8179605
-0.08236447 -0.20697856 0.81994605
-0.014656112 -0.20299263 0.81994611
-0.021176383 -0.19751962 0.81875479
-0.015845438 -0.19732507 0.81902987
-0.46594667 0.22797823 0.81994605
0.090088628 -0.35041222 0.82788801
0.058818616 -0.34336305 0.82503396
0.065034412 -0.34324917 0.82544774
0.075404741 -0.34327343 0.82583874
0.084485292 -0.34401056 0.82714361
0.095892787 -0.342951 0.82766765
0.10492139 -0.34311101 0.82590282
0.11453441 -0.34252089 0.82499629
0.12089355 -0.3434633 0.82292438
0.046905123 -0.33154267 0.82739162
0.05566116 -0.33410907 0.8244006
0.065009668 -0.33467302 0.82519341
0.07447017 -0.33498529 0.82652032
0.085465945 -0.33516565 0.8283844
0.095364347 -0.33466226 0.82642263
0.10482776 -0.33478525 0.8259027
0.11435781 -0.33525977 0.82536989
0.038171113 -0.32289213 0.82590264
0.045422271 -0.3248744 0.82644439
0.055031743 -0.32493344 0.82527649
0.064780414 -0.32495451 0.82713068
0.076764211 -0.32437938 0.82868212
0.08532761 -0.32471451 0.82644439
0.094969913 -0.32479528 0.8259027
0.10405408 -0.32522333 0.82472599
0.11137887 -0.32872134 0.82441354
0.027065711 -0.31305456 0.82601953
0.035171837 -0.31463292 0.82569563
0.045053799 -0.3147288 0.82576078
0.054216225 -0.31589159 0.82658064
0.065313265 -0.31499669 0.8284837
0.075282954 -0.3138141 0.82660037
0.085168667 -0.31502268 0.82609642
0.094418995 -0.31547472 0.82568985
0.10346366 -0.31784385 0.82490981
0.01834245 -0.30262327 0.82639903
0.025097961 -0.30475679 0.82590282
0.034845632 -0.30491024 0.82590276
0.044834442 -0.30633184 0.82546151
0.058158625 -0.30339622 0.8284837
0.06533552 -0.30433959 0.82732832
0.075069264 -0.30431619 0.82598352
0.08413817 -0.30582917 0.82654107
0.091069117 -0.30882406 0.82590264
-0.0028213845 -0.29149681 0.82788801
0.0063972035 -0.29231369 0.82528222
0.015562609 -0.29429236 0.82649845
0.025121568 -0.29503724 0.82595003
0.034344576 -0.29586071 0.82644629
0.046120781 -0.2933979 0.82778877
0.056017108 -0.29432714 0.82830942
0.065032005 -0.2945728 0.82747036
0.073403627 -0.29482007 0.82505691
0.083009079 -0.29861036 0.82590258
-0.003099954 -0.28410873 0.82618648
0.004992594 -0.28459916 0.82580346
0.015352628 -0.28488809 0.82621151
0.024362829 -0.28717285 0.82805371
0.036968905 -0.281766 0.82888073
0.045475457 -0.28467235 0.82835853
0.055048294 -0.28472686 0.82706088
0.0650189 -0.28510886 0.82728672
0.071616188 -0.28744611 0.82656437
-0.012402426 -0.27285057 0.82672995
-0.0048475009 -0.27475047 0.82751012
0.0054075452 -0.27476922 0.82712466
0.013634412 -0.27617711 0.82680523
0.027228288 -0.27335379 0.82907915
0.035136934 -0.27456349 0.82661176
0.045140382 -0.27460885 0.82717133
0.054615323 -0.27543497 0.82754797
0.06292028 -0.27930015 0.8270371
-0.022315228 -0.26234162 0.8267535
-0.014692405 -0.26444307 0.82768977
-0.0046978234 -0.26465657 0.8281219
0.0041972194 -0.26670811 0.82838452
0.017597642 -0.26277837 0.82895708
0.025470912 -0.26462036 0.82853228
0.035169736 -0.26481551 0.82776672
0.043565091 -0.26554278 0.82606828
0.050426539 -0.2687037 0.82590258
-0.033828408 -0.2536779 0.82689559
-0.024869332 -0.25549939 0.8284297
-0.014817183 -0.25480205 0.82804108
-0.0065490277 -0.25694469 0.82836074
0.0069903792 -0.2535671 0.82875663
0.01528024 -0.25481313 0.82827562
0.025173185 -0.25489497 0.82810897
0.034094136 -0.25596684 0.82884896
-0.041896317 -0.24355306 0.82689542
-0.034859963 -0.24478665 0.82779378
-0.024787785 -0.24493569 0.82792801
-0.016171481 -0.24735725 0.82821906
-0.0029441821 -0.24128646 0.82987344
0.0054958719 -0.24467331 0.82814282
0.015174636 -0.24499963 0.82873905
0.025048709 -0.24632695 0.82881474
0.030984949 -0.24865355 0.82788801
-0.067037463 -0.23002271 0.82490987
-0.052757017 -0.23193669 0.82763982
-0.044329926 -0.23466519 0.82799858
-0.034674566 -0.23477994 0.82778901
-0.026426837 -0.23571144 0.8279503
-0.012793066 -0.23265646 0.8298735
-0.0048686084 -0.23495811 0.82885259
0.0053477045 -0.23511471 0.82794666
0.014218732 -0.23634215 0.8279646
0.021362875 -0.23916876 0.82987344
-0.071988352 -0.22330263 0.82777137
-0.064083338 -0.22434349 0.82666177
-0.054784972 -0.22473355 0.82725865
-0.044880632 -0.22487502 0.82788831
-0.036423676 -0.22625855 0.82877046
-0.021898638 -0.22256058 0.8298735
-0.014595619 -0.22440046 0.82939231
-0.0050190073 -0.22512282 0.82771933
0.0029270297 -0.22552946 0.82546151
-0.073902816 -0.21316485 0.82628882
-0.064899273 -0.21510337 0.8287456
-0.054720752 -0.21539062 0.82950139
-0.046190757 -0.21617348 0.82942522
-0.031193124 -0.21604966 0.82987344
-0.024327153 -0.2148878 0.82968444
-0.015062767 -0.21523376 0.82851523
-0.0053953342 -0.21540172 0.82694912
0.0018144626 -0.21892224 0.82524079
-0.090018168 -0.20135197 0.82788801
-0.083601438 -0.2032197 0.82727742
-0.075011283 -0.20517534 0.82774657
-0.065323353 -0.2051699 0.82894707
-0.055864245 -0.20568794 0.82948923
-0.047302302 -0.20338449 0.82987344
-0.031193126 -0.2028991 0.82987344
-0.025184406 -0.2052868 0.82929635
-0.015363427 -0.20688646 0.8270309
-0.00704573 -0.20893556 0.82590258
-0.092682332 -0.19492503 0.82833934
-0.084613748 -0.19514684 0.82903779
-0.075097919 -0.19653909 0.82955348
-0.065566219 -0.19920863 0.82926267
-0.044702753 -0.19471389 0.82987362
-0.034873575 -0.19336253 0.82977885
-0.026179938 -0.19585747 0.8280434
-0.018651411 -0.19966599 0.82490987
-0.10376029 -0.18263057 0.82845533
-0.092592634 -0.1862102 0.82965267
-0.084977344 -0.18519507 0.82888097
-0.077329837 -0.18582974 0.82917845
-0.052948471 -0.18300927 0.82987344
-0.045706823 -0.18599683 0.82987362
-0.034941375 -0.18471251 0.82737672
-0.026937924 -0.18643606 0.82657963
-0.11259918 -0.17371142 0.82960272
-0.1048604 -0.17527884 0.8292591
-0.095232882 -0.17477055 0.82948619
-0.087169625 -0.17645533 0.82943237
-0.072388619 -0.17081712 0.82987344
-0.052915294 -0.17518702 0.82947618
-0.047633585 -0.17662716 0.82893908
-0.034830462 -0.17949697 0.82606804
-0.12273265 -0.16269398 0.82907933
-0.11504555 -0.16503298 0.82987362
-0.10502165 -0.16463684 0.82900828
-0.096850477 -0.16666073 0.82892799
-0.072388619 -0.1692663 0.82987344
-0.053850621 -0.16647132 0.82987344
-0.049888521 -0.1692663 0.82987344
-0.13373274 -0.1531246 0.82927781
-0.12516227 -0.15676978 0.82951236
-0.1147066 -0.15564123 0.82957572
-0.10699315 -0.15650433 0.82930613
-0.092561118 -0.15065637 0.82987344
-0.060750633 -0.15685968 0.82987344
-0.058144175 -0.15611282 0.82854986
-0.14347535 -0.14350857 0.82796764
-0.13801637 -0.14573917 0.82893908
-0.12303621 -0.14283131 0.82987344
-0.11721293 -0.14542007 0.82924169
-0.094800346 -0.14818855 0.8298735
-0.15196961 -0.13569154 0.82899106
-0.14487873 -0.1370554 0.82904625
-0.13524269 -0.1341625 0.82987338
-0.12542771 -0.13785133 0.82987338
-0.11901105 -0.139884 0.82987344
-0.16266049 -0.12471599 0.82987338
-0.15503679 -0.1232584 0.82987332
-0.14919929 -0.12274149 0.82987344
-0.13731369 -0.12793997 0.8298735
-0.15332407 -0.11707165 0.82987332
-0.14902125 -0.1164019 0.82987344
-0.11583708 -0.11033487 0.82987344
-0.15285029 -0.10783434 0.82888073
-0.11661631 -0.10639008 0.82788807
-0.12281987 -0.099479079 0.82788801
-0.15440528 -0.070264012 0.82788801
-0.17734182 -0.048359431 0.82987344
-0.3006767 0.007617814 0.82987344
-0.298401 0.0075998469 0.82987344
-0.46840203 0.22797821 0.82590258
0.093277082 -0.35069001 0.83450592
0.087832637 -0.3421357 0.83413613
0.092802346 -0.34790218 0.83364564
0.07760413 -0.33177146 0.83592874
0.082832418 -0.33664772 0.83575851
0.068442404 -0.32236472 0.83483678
0.074384868 -0.32545844 0.83514482
0.056405801 -0.31336266 0.83728015
0.063301288 -0.31563348 0.83468789
0.048327528 -0.30135155 0.8398
0.05516031 -0.30435818 0.83601552
-0.0048941555 -0.29057714 0.83483678
0.034940172 -0.29304779 0.83913821
0.043676712 -0.29477602 0.83655745
0.05247964 -0.2984941 0.83409232
0.019891785 -0.28025538 0.83285147
0.025806008 -0.28436345 0.83781469
0.034163978 -0.28642446 0.83536232
0.040645074 -0.28827786 0.83351326
0.069321729 -0.28503937 0.83682203
0.071657658 -0.28503937 0.8361603
0.014066095 -0.27211142 0.83806288
0.022947188 -0.27588063 0.83687174
0.061909895 -0.27815571 0.83483678
-0.00023535459 -0.26012325 0.83979994
0.0054376815 -0.26354966 0.83660924
0.013759261 -0.26593143 0.83533317
-0.0047496278 -0.25413394 0.83736968
0.0031847802 -0.25622788 0.8357302
0.038468115 -0.25550136 0.83285147
-0.020600434 -0.24133565 0.83285147
-0.013557001 -0.24502131 0.83689839
-0.005388191 -0.24610119 0.83524752
0.0013162417 -0.2471385 0.83285147
0.022987841 -0.24544504 0.83285147
-0.070921421 -0.23002271 0.83582944
-0.068591043 -0.23002271 0.83582944
-0.030070623 -0.23170552 0.83582944
-0.024414325 -0.23207551 0.83913815
-0.015308519 -0.23533301 0.83629268
0.015291187 -0.23527031 0.83384413
-0.071698211 -0.22847006 0.83285153
-0.035092492 -0.22500008 0.83528799
-0.0262013 -0.22558253 0.83640838
-0.0188764 -0.22847004 0.83483678
-0.060750633 -0.21268946 0.83285147
-0.055982135 -0.21394634 0.83303195
-0.045145426 -0.21499646 0.83473748
-0.034663007 -0.21384491 0.83434045
-0.029668737 -0.21493453 0.83285153
-0.054314237 -0.20323044 0.83738923
-0.044039384 -0.20383106 0.83500224
-0.035333954 -0.20547958 0.83340985
-0.094888717 -0.19873202 0.83285147
-0.073132299 -0.19255552 0.83311623
-0.065660633 -0.19492738 0.83577979
-0.055636849 -0.19518915 0.83635664
-0.045765415 -0.19675156 0.83285147
-0.035450201 -0.19725208 0.83285153
-0.1014508 -0.1819008 0.83285153
-0.097139083 -0.18441093 0.83285153
-0.080715567 -0.18062523 0.83434045
-0.074154958 -0.1861171 0.83511251
-0.063840568 -0.1834521 0.83644384
-0.056189597 -0.18609472 0.83375394
-0.043190341 -0.18381786 0.83285153
-0.11169055 -0.17814508 0.83285147
-0.091169059 -0.17498422 0.83533311
-0.08365605 -0.17547755 0.83607763
-0.073525742 -0.17402066 0.83535463
-0.064517736 -0.17481783 0.83309293
-0.057278834 -0.17499013 0.83285153
-0.043871336 -0.17751049 0.83318233
-0.12252675 -0.16344738 0.83285147
-0.094371706 -0.16422741 0.83639663
-0.084591985 -0.16478373 0.83538109
-0.074837334 -0.16520545 0.83314925
-0.064695664 -0.16498642 0.83460772
-0.055826422 -0.16428995 0.83330965
-0.049888521 -0.16694006 0.83285147
-0.13262789 -0.15130964 0.83285147
-0.12482548 -0.15263955 0.83285153
-0.11520157 -0.15096579 0.83305007
-0.10285206 -0.15682006 0.83575308
-0.094445892 -0.15456106 0.83547717
-0.08465258 -0.15508567 0.83319896
-0.074732617 -0.15534194 0.83382392
-0.065645821 -0.15683067 0.83436424
-0.057669491 -0.15950742 0.83351326
-0.13313456 -0.14463013 0.83285147
-0.1259658 -0.14615276 0.83285153
-0.11400004 -0.14267319 0.83682197
-0.10438031 -0.14474626 0.83575302
-0.094875254 -0.1442371 0.83297551
-0.084790707 -0.14520881 0.83373386
-0.076514132 -0.14711 0.8346383
-0.16025242 -0.13065135 0.83582944
-0.15415029 -0.13161792 0.83330965
-0.14518768 -0.13192366 0.83285147
-0.13460064 -0.13493448 0.83303928
-0.12451117 -0.13523878 0.83559579
-0.11468553 -0.13477424 0.83601713
-0.10505924 -0.1352548 0.83493131
-0.095040038 -0.13532136 0.83456779
-0.08633291 -0.13764913 0.83331859
-0.16320753 -0.12312031 0.83329266
-0.15406141 -0.12760074 0.83285153
-0.144701 -0.12511058 0.83356047
-0.13495579 -0.12506491 0.83538276
-0.12471706 -0.124423 0.83675343
-0.11492901 -0.12502071 0.83493608
-0.1050574 -0.12516738 0.83494723
-0.096654624 -0.12666315 0.8359158
-0.17379515 -0.11217922 0.8348369
-0.16474481 -0.1150062 0.83451241
-0.15497716 -0.11346805 0.83450586
-0.1449081 -0.11598267 0.83634728
-0.1345247 -0.11412384 0.83595335
-0.12522492 -0.11496766 0.83563071
-0.1155279 -0.11563493 0.83462894
-0.10702057 -0.11807751 0.8348369
-0.18265517 -0.10376629 0.83411992
-0.17501144 -0.10503215 0.83519524
-0.16497482 -0.1049896 0.83541393
-0.15513715 -0.10561503 0.83649105
-0.14445499 -0.10498484 0.83625036
-0.13463667 -0.10504567 0.83527797
-0.12521143 -0.10496075 0.83467144
-0.11941078 -0.10615607 0.83318233
-0.19359429 -0.09279523 0.83494723
-0.1850403 -0.094856262 0.83473319
-0.17483424 -0.09474659 0.83565295
-0.1663294 -0.096138418 0.83627051
-0.15431541 -0.094169833 0.83596623
-0.14495438 -0.0950986 0.83570796
-0.1348799 -0.095168218 0.83539367
-0.12722501 -0.096383505 0.8348369
-0.2033549 -0.082906045 0.83495373
-0.19519489 -0.084841736 0.8350023
-0.18534864 -0.084877498 0.83576161
-0.17499177 -0.086538367 0.83721036
-0.16462608 -0.085076116 0.83631057
-0.15503278 -0.08496654 0.83577406
-0.14499411 -0.085010402 0.83573472
-0.13732179 -0.088080898 0.83483684
-0.21334589 -0.073212229 0.83431441
-0.20533198 -0.074703373 0.83518833
-0.1949238 -0.074567951 0.83533299
-0.1861562 -0.07582774 0.83653837
-0.17476872 -0.073790729 0.83675575
-0.16507205 -0.074829258 0.8358295
-0.15538312 -0.075340986 0.83572471
-0.14742193 -0.077303231 0.83594626
-0.22343573 -0.062769532 0.83551925
-0.21546109 -0.06467928 0.83555353
-0.20526215 -0.06460312 0.83520597
-0.19712605 -0.066419996 0.83620763
-0.18397789 -0.064342067 0.83627045
-0.17529228 -0.06471546 0.8358292
-0.16515633 -0.065023512 0.83537126
-0.15784979 -0.067590207 0.8350023
-0.24005602 -0.050809279 0.83582944
-0.23297973 -0.053502552 0.8348369
-0.22499788 -0.055343006 0.83486307
-0.21493775 -0.054842297 0.83574277
-0.20627978 -0.057458747 0.8359713
-0.19325362 -0.052312817 0.83909094
-0.18494944 -0.054749787 0.83601832
-0.17499113 -0.055605631 0.83575487
-0.16717775 -0.058587238 0.83582944
-0.24346191 -0.043432333 0.83533323
-0.23472723 -0.045157038 0.83562267
-0.22495493 -0.045299515 0.83540392
-0.21777155 -0.045725174 0.83606756
-0.20312925 -0.04337658 0.83858663
-0.19471459 -0.044721723 0.83726305
-0.18530825 -0.044945233 0.83462632
-0.17804855 -0.049002819 0.83324856
-0.25442708 -0.032935247 0.83559597
-0.24526806 -0.035125129 0.83534646
-0.23476441 -0.035263803 0.8357808
-0.22572303 -0.036377549 0.83611292
-0.21341684 -0.033919264 0.83771527
-0.20473461 -0.035258427 0.83679765
-0.19522387 -0.035594814 0.83637071
-0.18777572 -0.038128644 0.83450598
-0.27133358 -0.021187572 0.83483678
-0.26432675 -0.02271919 0.83598822
-0.25512511 -0.025305992 0.83576173
-0.245592 -0.025458872 0.8364768
-0.23733549 -0.028478274 0.83781469
-0.2232565 -0.02292892 0.83955175
-0.21470241 -0.025167102 0.83701092
-0.20482092 -0.025388425 0.83578414
-0.19726165 -0.027897188 0.83590037
-0.28116903 -0.011709616 0.83582944
-0.27377439 -0.014346213 0.83722633
-0.26466614 -0.014880583 0.83623642
-0.25549048 -0.015524716 0.83685189
-0.24668306 -0.016533997 0.83731836
-0.23391554 -0.013357662 0.83945465
-0.22474861 -0.015084871 0.83957934
-0.21473409 -0.015086053 0.83803505
-0.2070501 -0.017381473 0.83590585
-0.29109281 -0.0010107246 0.83384413
-0.28370726 -0.003919072 0.83516777
-0.2747395 -0.0048131403 0.83620161
-0.26520899 -0.0053042276 0.8375057
-0.25859955 -0.0078069987 0.83847642
-0.24381697 -0.0040263836 0.83823997
-0.23473981 -0.0050789444 0.83777225
-0.22524093 -0.0050314637 0.83766913
-0.21782136 -0.0080203228 0.83649123
-0.29355446 0.0061027715 0.83587676
-0.28471515 0.0051187011 0.83585608
-0.27461869 0.0051303138 0.83607137
-0.26944193 0.0036845813 0.83831096
-0.25386727 0.0074169305 0.83956635
-0.2453043 0.0052499464 0.83908296
-0.23540385 0.0049234228 0.83667153
-0.22933216 0.0032006556 0.83582944
-0.31243244 0.018493457 0.83582944
-0.30462471 0.015761387 0.83573627
-0.29568091 0.014451935 0.83618557
-0.2850771 0.014383082 0.83704233
-0.27625033 0.01292784 0.83764923
-0.26359752 0.016412014 0.83865047
-0.25474989 0.014737194 0.83786809
-0.24520107 0.01463304 0.83842117
-0.23644039 0.012876552 0.83476585
-0.32167074 0.028319055 0.83702058
-0.31416345 0.025942465 0.83702731
-0.30511665 0.024755003 0.83758217
-0.29608101 0.023918003 0.83835596
-0.28654644 0.021875005 0.83753115
-0.27352959 0.026809106 0.83979994
-0.26519647 0.024971729 0.83813035
-0.25556183 0.023749586 0.83802342
-0.24649258 0.021738643 0.83744228
-0.33312967 0.038658142 0.83483678
-0.32456642 0.035742857 0.83671176
-0.31511673 0.035081759 0.83786285
-0.30487397 0.034715254 0.83771271
-0.29858303 0.031942479 0.83979994
-0.28401423 0.036131416 0.83852929
-0.27518195 0.03500044 0.8386969
-0.26578343 0.03423968 0.83672887
-0.25871521 0.031084327 0.83979994
-0.34074312 0.04860926 0.8365739
-0.33517057 0.046040419 0.83918911
-0.3256503 0.045275528 0.83955789
-0.31559849 0.044704877 0.83767921
-0.30833215 0.041708965 0.83923274
-0.29195499 0.046472855 0.8398
-0.28491524 0.045234129 0.83909088
-0.27477774 0.042302195 0.83959091
-0.26829121 0.041779079 0.83696389
-0.35040122 0.05783648 0.83979994
-0.3439402 0.055616003 0.83787131
-0.3348242 0.055373836 0.83836597
-0.32565421 0.054594122 0.83933669
-0.31623465 0.053853668 0.8388837
-0.29198804 0.055011682 0.8398
-0.28614193 0.05457709 0.8398
-0.3678306 0.069146439 0.83781469
-0.35894319 0.062014252 0.83979994
-0.34190932 0.06276983 0.83960146
-0.33554631 0.063722596 0.83894902
-0.32904932 0.062173087 0.83940285
-0.31173387 0.063525304 0.83979994
-0.30431923 0.065739743 0.8398
-0.29567754 0.065783501 0.8398
-0.28863817 0.061498255 0.8398
-0.37196809 0.077411495 0.83955181
-0.36850679 0.072975658 0.83923274
-0.30227083 0.073473237 0.8398
-0.2978788 0.071007945 0.83979994
-0.40332782 0.10619974 0.83979994
-0.33391362 0.10727047 0.83979994
-0.35160142 0.11761152 0.83979994
-0.34763411 0.11733115 0.83761615
-0.421406 0.12409724 0.83913821
-0.41929752 0.1222534 0.83781469
-0.36067134 0.1271864 0.83979994
-0.35526562 0.12484182 0.83803529
-0.36067134 0.13190551 0.83582944
-0.35903758 0.1300258 0.83582944
-0.46199417 0.15939367 0.83781469
-0.45223513 0.15665528 0.83979994
-0.46474737 0.16562667 0.83725357
-0.47270581 0.17827523 0.83979994
-0.46738622 0.17193644 0.83764923
-0.48095939 0.18664326 0.83831096
-0.47749475 0.1857232 0.83873099
-0.46310267 0.18568541 0.83979994
-0.45990604 0.18432111 0.83979994
-0.49086559 0.19739917 0.8398
-0.48471063 0.19338891 0.83979994
-0.47849208 0.19033146 0.83979994
-0.49060112 0.20256937 0.8398
-0.48733631 0.2044626 0.8398
-0.4560245 0.21804117 0.83649123
-0.4926241 0.22855201 0.83781475
-0.48501006 0.22746181 0.8383441
-0.47163412 0.2279302 0.83483678
-0.46760815 0.22405313 0.83483684
-0.49249625 0.23282224 0.83930361
-0.48526189 0.2319614 0.83979994
-0.47823283 0.23589551 0.83880728
0.054640304 -0.31219918 0.84313864
0.045868933 -0.30468723 0.8431955
0.051532503 -0.30752778 0.84357178
0.037197057 -0.29481807 0.84277767
0.041748043 -0.29863781 0.84277767
0.024829358 -0.28360772 0.84277767
0.016487231 -0.27495253 0.84294307
0.020129725 -0.27734518 0.84277767
-0.0025851713 -0.25581777 0.84277767
-0.015282444 -0.2430149 0.84304231
-0.023270644 -0.23505881 0.84302568
-0.017474845 -0.23803732 0.84277767
-0.034655087 -0.22355865 0.84476292
-0.043927979 -0.21382254 0.8447628
-0.037939861 -0.21818802 0.84343946
-0.053446956 -0.20534921 0.84310859
-0.046474535 -0.20885354 0.845011
-0.064553261 -0.19381498 0.84372294
-0.059905335 -0.19639552 0.84277767
-0.073872186 -0.18390128 0.84410107
-0.068076186 -0.18803667 0.84410113
-0.084522359 -0.17447369 0.84343934
-0.077585474 -0.17843334 0.84447926
-0.10096936 -0.16067892 0.84277767
-0.094863072 -0.1643946 0.84410107
-0.089634225 -0.16716641 0.84277767
-0.11219775 -0.15100418 0.84833604
-0.10547218 -0.15436156 0.84515983
-0.098608434 -0.15910588 0.84476286
-0.11301299 -0.14683338 0.84436578
-0.10805214 -0.14888117 0.84277767
-0.12626611 -0.13415268 0.8450762
-0.14160314 -0.12099114 0.84873307
-0.1355682 -0.12505336 0.84674799
-0.12907884 -0.1289967 0.84542453
-0.15152088 -0.11296833 0.84674788
-0.14503895 -0.11594374 0.84736824
-0.13684748 -0.11949819 0.84277767
-0.1618098 -0.10174575 0.84608626
-0.15837343 -0.10295889 0.84703153
-0.17062373 -0.09089224 0.84774053
-0.16561207 -0.095376484 0.84734344
-0.15942767 -0.099271201 0.84674788
-0.18137583 -0.08148101 0.84774053
-0.17584181 -0.084487408 0.84662384
-0.16982269 -0.086542189 0.84277767
-0.19067602 -0.071932659 0.84740967
-0.18442068 -0.075868927 0.84612757
-0.17757103 -0.077864453 0.84377027
-0.20162347 -0.06100671 0.84873307
-0.19361563 -0.065503165 0.84717959
-0.18841922 -0.06976971 0.84674793
-0.2110199 -0.050929088 0.84575546
-0.20544349 -0.053179599 0.84744281
-0.1963748 -0.055132899 0.84463042
-0.21410413 -0.044604342 0.8465274
-0.20677103 -0.046383381 0.84542453
-0.23344293 -0.030424125 0.8447628
-0.22330931 -0.034293067 0.84701878
-0.21690707 -0.037899006 0.84595388
-0.24161203 -0.022129042 0.84586561
-0.23502171 -0.02475174 0.84654957
-0.2264853 -0.025748465 0.84352195
-0.25206375 -0.01150219 0.84542453
-0.24532731 -0.015011769 0.8466686
-0.23555991 -0.017627895 0.84360474
-0.26228565 -0.00075480429 0.84542453
-0.25480384 -0.0057854024 0.8453896
-0.24809061 -0.0065320032 0.84396881
-0.22111814 -0.0017939454 0.84277767
-0.27100995 0.0076554171 0.84608626
-0.26568854 0.0040360028 0.84569693
-0.25546512 0.0033596265 0.84405369
-0.28256661 0.018145233 0.84509367
-0.27476621 0.014593314 0.84626687
-0.26534858 0.012500818 0.84458232
-0.29372823 0.026967978 0.84357166
-0.2852799 0.024573022 0.8464644
-0.27679572 0.024117544 0.84406209
-0.25383097 0.02723448 0.84377027
-0.24643174 0.023328241 0.84343946
-0.30142456 0.037283905 0.84396881
-0.29532769 0.03639178 0.84583175
-0.28717622 0.032617357 0.84426653
-0.33155826 0.043712482 0.84277767
-0.329988 0.043712482 0.84277767
-0.31191978 0.047311567 0.84731507
-0.30383784 0.045277204 0.84522104
-0.29579836 0.045016143 0.84336567
-0.27691245 0.047106981 0.84310836
-0.35197148 0.058464218 0.84277767
-0.32399809 0.057617687 0.84410107
-0.31511262 0.054606874 0.84490991
-0.30458522 0.055371441 0.84327376
-0.29656416 0.055818763 0.84277743
-0.28321046 0.055543281 0.84277767
-0.36353922 0.066678338 0.84289426
-0.35406619 0.065315142 0.84277737
-0.34577718 0.065666549 0.84277743
-0.33442074 0.066100165 0.84459734
-0.32427093 0.06590303 0.84565622
-0.31572586 0.065804869 0.84343928
-0.30574518 0.063181989 0.84277749
-0.29496294 0.063667096 0.84277743
-0.37200379 0.079366155 0.84277767
-0.36441153 0.075580597 0.84303355
-0.35496953 0.074709281 0.84403139
-0.34518707 0.073871054 0.84437668
-0.33473516 0.075323902 0.84602618
-0.32493737 0.075512126 0.8437956
-0.31489396 0.075121224 0.8429842
-0.30620751 0.075148121 0.84315926
-0.29944536 0.071007945 0.84277767
-0.38368878 0.087435819 0.84291941
-0.37445015 0.085676454 0.84277737
-0.36513987 0.084867388 0.84283251
-0.35633698 0.084556475 0.84501106
-0.3445152 0.086084269 0.84691334
-0.33516088 0.085418247 0.84426647
-0.32525623 0.085774906 0.84393978
-0.31470302 0.085243724 0.84296948
-0.30854833 0.084572896 0.84306121
-0.3929047 0.096539497 0.84443194
-0.38526747 0.095506303 0.84482127
-0.37402484 0.094920225 0.84390557
-0.36605322 0.094149716 0.84545344
-0.35326466 0.095872663 0.84645027
-0.34497696 0.095024809 0.84492379
-0.33542424 0.095395431 0.84481514
-0.3262521 0.09402331 0.84626889
-0.31712842 0.092057779 0.84575534
-0.40129897 0.10645455 0.84377021
-0.39447436 0.10462976 0.84464604
-0.38536933 0.10503192 0.84639192
-0.37633523 0.10362279 0.84621358
-0.36317572 0.10597172 0.84789729
-0.35459507 0.10481931 0.84510326
-0.34495464 0.10462302 0.84487313
-0.33548489 0.10397542 0.84422135
-0.32871044 0.1037327 0.84317464
-0.4130846 0.11749744 0.84635097
-0.4047159 0.11549418 0.84592092
-0.39499971 0.11468347 0.84506524
-0.38744426 0.1123859 0.84720618
-0.37191084 0.11593109 0.84810621
-0.36460736 0.11475983 0.84659547
-0.3554191 0.1145118 0.84450161
-0.34469065 0.11307451 0.84568465
-0.33917129 0.11075334 0.84608626
-0.42379832 0.12814966 0.84338844
-0.41505462 0.12478466 0.84461403
-0.4054102 0.12538999 0.84607035
-0.39680171 0.12308238 0.84767443
-0.3814455 0.12887627 0.84873307
-0.3745814 0.12518352 0.84742737
-0.36554483 0.12511501 0.84582645
-0.35689479 0.12317905 0.84308302
-0.43233281 0.13644633 0.84423345
-0.42505217 0.13496819 0.84542453
-0.41524655 0.13502124 0.8449775
-0.40720615 0.1343137 0.84682459
-0.391101 0.1367195 0.84873301
-0.38469827 0.1356132 0.84842783
-0.37489378 0.13485061 0.8469373
-0.36589009 0.13297388 0.84330702
-0.44285429 0.14767513 0.8464644
-0.43485671 0.14518197 0.84633273
-0.42482695 0.14534476 0.8457557
-0.41631359 0.14393139 0.84650993
-0.40886772 0.14092174 0.84774053
-0.3946428 0.14549235 0.84851885
-0.38513577 0.14485753 0.84842318
-0.37688631 0.14325179 0.84570312
-0.46093997 0.15834005 0.84277767
-0.45374474 0.15695438 0.84301108
-0.44578198 0.15529265 0.84528524
-0.43489331 0.15536509 0.84429026
-0.4267711 0.15455101 0.84468341
-0.41929752 0.15149148 0.84476286
-0.40422338 0.15660419 0.84873325
-0.39440084 0.15506421 0.84864503
-0.38796693 0.15350358 0.84873307
-0.46129939 0.16663562 0.84343946
-0.45496741 0.16495761 0.84421134
-0.44539222 0.16526791 0.84525937
-0.43557471 0.16358678 0.84540105
-0.42433351 0.16629474 0.84740967
-0.41379717 0.16624846 0.84873301
-0.40448353 0.16473788 0.84852797
-0.39581424 0.16410127 0.84589738
-0.47148234 0.17914914 0.84277767
-0.46445146 0.17624955 0.84406209
-0.45541686 0.17459659 0.84647989
-0.44777596 0.17301166 0.84628093
-0.42344901 0.17633259 0.84873319
-0.41485825 0.17422245 0.84873331
-0.4059839 0.17430794 0.84810156
-0.3996737 0.17085592 0.84476286
-0.47271237 0.18564209 0.84277743
-0.46516955 0.18476741 0.84289771
-0.45819244 0.18145759 0.84674793
-0.44088531 0.18828146 0.84873313
-0.43481681 0.18583734 0.84799606
-0.42514855 0.18491997 0.84873343
-0.41652602 0.18366231 0.84770399
-0.407599 0.18036076 0.84873307
-0.49275589 0.19507273 0.84277767
-0.48311615 0.19754858 0.84277767
-0.47516578 0.19480556 0.84382236
-0.46776187 0.19125082 0.84426653
-0.45266044 0.19596533 0.84816599
-0.44484806 0.19541003 0.84713435
-0.43527782 0.19521837 0.84646451
-0.42888412 0.1934865 0.84816587
-0.49045867 0.20838723 0.84277767
-0.48381451 0.20531222 0.84296948
-0.47698474 0.20331003 0.84529227
-0.46098056 0.20380585 0.84873307
-0.45525557 0.20570543 0.84873343
-0.44553903 0.20477949 0.84614652
-0.43656927 0.202915 0.8448869
-0.49124581 0.21491797 0.8447628
-0.4868319 0.21377474 0.8454718
-0.4745163 0.2156412 0.84483129
-0.46564665 0.2157591 0.84789759
-0.45573795 0.21353468 0.84736854
-0.44918919 0.21159394 0.84873307
-0.49220076 0.22425528 0.84391207
-0.48187512 0.22534123 0.84277767
-0.47468609 0.22542205 0.84416121
-0.46534717 0.225144 0.84694183
-0.45911351 0.22154836 0.84575534
-0.50022185 0.23026632 0.84277767
-0.49209303 0.23637822 0.84377027
-0.48450336 0.2356237 0.84283578
-0.47572759 0.23455115 0.84423345
-0.46493363 0.23197718 0.84589726
-0.45700365 0.23168373 0.84432167
-0.4904587 0.24552751 0.84476292
-0.48650524 0.24378903 0.84357178
-0.47938913 0.2415764 0.84277767
-0.491211 0.25323114 0.84525913
-0.15046662 -0.11402194 0.85071808
-0.14888526 -0.11481217 0.85071808
-0.16191442 -0.10003173 0.85071808
-0.16153613 -0.098217577 0.85071808
-0.18151447 -0.082509704 0.85071808
-0.17893107 -0.082413204 0.85071808
-0.20154096 -0.060428269 0.85071808
-0.1983484 -0.062764764 0.85071808
-0.20346297 -0.05645074 0.85071808
-0.19942757 -0.058316089 0.85071814
-0.21402235 -0.045335066 0.85071814
-0.23184924 -0.031483918 0.85071814
-0.22848701 -0.031913776 0.85071808
-0.24093661 -0.020873468 0.85071808
-0.23272215 -0.028779084 0.85071808
-0.24331975 -0.018491708 0.85071808
-0.26018828 -0.0018151505 0.85071814
-0.25489777 -0.0050589917 0.85119075
-0.27148974 0.0087866411 0.85071814
-0.26506525 0.005144475 0.85115939
-0.28079405 0.018778648 0.85071808
-0.27255136 0.010908695 0.85071808
-0.29226673 0.027665883 0.85248256
-0.28571752 0.024203738 0.85158128
-0.24605027 0.023696 0.856673
-0.30108854 0.037105676 0.85071808
-0.29613605 0.033474859 0.8523578
-0.31120363 0.047458883 0.85071808
-0.30606386 0.043297354 0.85071814
-0.32351035 0.058654919 0.85071808
-0.31640294 0.053754993 0.85071808
-0.3325333 0.066970266 0.85429108
-0.3272621 0.063533932 0.85220683
-0.34321696 0.077545747 0.85204142
-0.33626077 0.073763281 0.85171068
-0.35239786 0.085944749 0.85548204
-0.34584656 0.084336072 0.85395676
-0.37042096 0.099802345 0.85071808
-0.36412257 0.096548013 0.85468805
-0.35713714 0.093309715 0.85270309
-0.32628173 0.098350398 0.8519091
-0.3735792 0.10655153 0.8529737
-0.36695468 0.10271873 0.85171068
-0.3914361 0.11886054 0.85568047
-0.38507393 0.11524294 0.8548407
-0.37741789 0.11459775 0.85312849
-0.40140188 0.12917738 0.85071808
-0.39386913 0.12564343 0.85422486
-0.38502976 0.12552404 0.85247409
-0.40407091 0.13602407 0.85529882
-0.39645144 0.13450259 0.85353011
-0.38620067 0.13125247 0.85071808
-0.42022571 0.14932775 0.85270309
-0.41362661 0.14627959 0.85482037
-0.40467924 0.14444365 0.85208273
-0.39795765 0.14177357 0.85071814
-0.38213557 0.14437953 0.85071808
-0.42367813 0.15576133 0.85430992
-0.4142974 0.15530334 0.85224003
-0.40623343 0.15253685 0.85087091
-0.38492736 0.15253447 0.85115916
-0.43352151 0.16635418 0.85568041
-0.42607278 0.16489752 0.85355365
-0.41634074 0.1641352 0.85071826
-0.40827832 0.16768768 0.85071814
-0.4512023 0.17830549 0.85497159
-0.4451482 0.17514616 0.85619652
-0.43431288 0.17487547 0.85329121
-0.4266113 0.17342079 0.85071826
-0.4157885 0.17666444 0.85071814
-0.4070785 0.1757147 0.85089862
-0.46330854 0.18749684 0.85557014
-0.45406958 0.18475801 0.85623872
-0.44535631 0.18442366 0.85377192
-0.43780723 0.18179739 0.85071814
-0.42741227 0.18616927 0.85071814
-0.47351822 0.19787556 0.85799623
-0.46351349 0.1954245 0.8555702
-0.45727402 0.19439803 0.85224515
-0.44747609 0.19030921 0.85071808
-0.42541346 0.19341032 0.8508836
-0.48168617 0.20823948 0.85344744
-0.47451124 0.20499389 0.85498583
-0.46502593 0.20539667 0.8513062
-0.45833263 0.20195335 0.85071814
-0.44453797 0.20985129 0.856673
-0.49217245 0.2162898 0.85700387
-0.48421112 0.21422443 0.85426265
-0.47946036 0.21155569 0.85766542
-0.46324301 0.21170111 0.85071808
-0.45159423 0.21467464 0.85402632
-0.44716793 0.21193457 0.856673
-0.50110948 0.22722328 0.85816169
-0.49511904 0.22475705 0.8574903
-0.46151784 0.22788781 0.85071808
-0.4593918 0.22841735 0.85071808
-0.49081472 0.25560731 0.85171056
-0.3889361 0.11904538 0.86163527
-0.39188135 0.12238225 0.86163533
-0.38965216 0.12118432 0.86163527
-0.40413436 0.13565809 0.86163527
-0.41861656 0.14932775 0.86163527
-0.42119285 0.15128334 0.86163527
-0.4453854 0.1738499 0.86163527
-0.46312663 0.18996888 0.86163533
-0.45754609 0.18689595 0.86163533
-0.4736101 0.1976254 0.86262763
-0.46698758 0.19376168 0.86199617
-0.4813728 0.20722283 0.86163527
-0.47704107 0.20380385 0.86163533
-0.45313728 0.21836512 0.8650378
-0.44976172 0.21476839 0.86163527
-0.49708962 0.22135474 0.86163527
-0.46220881 0.22124578 0.86362004
-0.45103034 0.22059494 0.86758959
-0.46300012 0.22483329 0.87467778
-0.45687887 0.22507447 0.87255126
-0.46214944 0.23017055 0.87701666
