# .PCD v0.7 - Point Cloud Data file format
VERSION 0.7
FIELDS x y z
SIZE 4 4 4
TYPE F F F
COUNT 1 1 1
WIDTH 125
HEIGHT 1
VIEWPOINT 0 0 0 1 0 0 0
POINTS 125
DATA ascii
0.72484338 0.13702826 1.4081496
0.73166543 0.13597932 1.4081496
0.72116995 0.14122401 1.4081496
0.7073772 0.12734503 1.4190139
0.72923553 0.12907669 1.4170387
0.73302466 0.12649629 1.4147811
0.71789974 0.13520359 1.4175324
0.7247147 0.13388233 1.4144554
0.73293066 0.13251176 1.413088
0.7184484 0.14172234 1.413088
0.72108155 0.14172234 1.413088
0.70581806 0.12455846 1.4239519
0.71869904 0.12955889 1.4239519
0.72488743 0.12874608 1.423952
0.73154235 0.1261944 1.4239519
0.7182101 0.13019176 1.4239519
0.70757544 0.10970417 1.4367895
0.71160567 0.10970417 1.4367895
0.69502443 0.11477575 1.4367895
0.70533919 0.11471044 1.4367895
0.71491897 0.11608072 1.4367895
0.72516239 0.11659436 1.4367895
0.73405534 0.11610749 1.4367896
0.68773299 0.1227062 1.4367895
0.69434679 0.12216472 1.4338272
0.70466405 0.12175638 1.4321811
0.71643949 0.12302028 1.4318521
0.72458065 0.1236194 1.433827
0.7345171 0.12157571 1.4338269
0.69724131 0.10790556 1.4429115
0.70372313 0.10777868 1.4442657
0.71319926 0.10746145 1.4417267
0.72019976 0.10790398 1.4476509
0.68760782 0.11849038 1.4446888
0.691796 0.11478432 1.4444195
0.71845889 0.11329035 1.4417267
0.72456282 0.11284783 1.4434193
0.7358945 0.11331003 1.4440964
0.74688625 0.11197235 1.4476509
0.66737336 0.12956375 1.4446888
0.67684019 0.12632017 1.4456762
0.68421316 0.12174188 1.4446888
0.66601884 0.13227122 1.4456762
0.68783039 0.10856777 1.4594988
0.69320089 0.10673662 1.4562078
0.70538342 0.10405295 1.456537
0.71453929 0.10394962 1.4569601
0.72598761 0.10652052 1.4565369
0.73430097 0.10878904 1.4594988
0.66739023 0.11786152 1.4594988
0.67555481 0.1159853 1.4569602
0.68508804 0.11457672 1.4575242
0.69100887 0.11251477 1.453575
0.7427727 0.11197235 1.453575
0.66529876 0.1249958 1.4567345
0.67448461 0.12313349 1.453575
0.65514952 0.13553226 1.4594988
0.66167128 0.13183475 1.4559445
0.68517804 0.10811859 1.4654223
0.6946975 0.10332968 1.4654222
0.70617056 0.10178271 1.4654222
0.72894955 0.10490468 1.4654222
0.73541707 0.10550344 1.4654222
0.74003029 0.10649079 1.4654222
0.66737384 0.11858083 1.4654222
0.67421097 0.11242978 1.4654222
0.66324371 0.12841704 1.4654222
0.65644038 0.13486215 1.4654222
0.66055667 0.13062647 1.4654222
0.6770497 0.10911196 1.472826
0.68465936 0.10589357 1.475047
0.69430411 0.1021544 1.4755759
0.70300817 0.10100923 1.4713452
0.7153489 0.10100923 1.4713453
0.72367054 0.10121384 1.4743066
0.74003029 0.10375001 1.4713452
0.66868418 0.11792976 1.4772681
0.67232645 0.11337858 1.4743067
0.66379374 0.12466263 1.4737142
0.64953178 0.13938017 1.4713452
0.65494913 0.13448773 1.4752939
0.64953178 0.14212096 1.4713452
0.69489825 0.099462792 1.4891127
0.71626967 0.099927269 1.4891127
0.72582775 0.097649336 1.4873183
0.73198885 0.096214458 1.4841776
0.67947668 0.10864793 1.4891127
0.68542808 0.10397851 1.4862927
0.69396359 0.10189588 1.4841776
0.66881889 0.11893432 1.4858227
0.67277908 0.11416233 1.4866452
0.65771294 0.12837631 1.4854114
0.66329628 0.12429082 1.4860283
0.65770757 0.1319783 1.4866452
0.68838292 0.099927269 1.4960215
0.69658637 0.096007995 1.4960214
0.70441782 0.096443459 1.4960215
0.71403521 0.096923716 1.4960215
0.72470993 0.094666421 1.4960215
0.73263735 0.091870129 1.4960215
0.67667878 0.10864793 1.4960215
0.6878705 0.10025903 1.4960215
0.67416012 0.11265568 1.4960215
0.65989119 0.12822203 1.4960215
0.66268909 0.12542574 1.4960215
0.70385867 0.086677007 1.5009563
0.71412551 0.087276369 1.5018197
0.72493774 0.087189056 1.5058906
0.73293567 0.088215098 1.5032589
0.70675647 0.095365502 1.5009562
0.71351814 0.092802227 1.5009563
0.7228446 0.091870129 1.5009562
0.67270857 0.10762081 1.5009562
0.66847503 0.11739397 1.5055617
0.67226827 0.11467941 1.5032589
0.68002117 0.11387815 1.5078644
0.66575396 0.12319753 1.5051011
0.66136372 0.13384786 1.5044103
0.66890693 0.11736123 1.5147719
0.68002117 0.11102078 1.5147719
0.66606033 0.12461646 1.5147719
0.67716211 0.10816341 1.5266128
0.66873115 0.11743948 1.5216793
0.6748749 0.11330668 1.5246395
0.66731274 0.12311443 1.5216793
