# .PCD v0.7 - Point Cloud Data file format
VERSION 0.7
FIELDS x y z
SIZE 4 4 4
TYPE F F F
COUNT 1 1 1
WIDTH 804
HEIGHT 1
VIEWPOINT 0 0 0 1 0 0 0
POINTS 804
DATA ascii
0.59473324 1.0072112 2.3406568
0.59353507 1.0155075 2.3406568
0.59233677 1.02163 2.3406568
0.5894134 0.98594218 2.3563297
0.59385008 0.98594218 2.3563297
0.5894134 0.9948104 2.3563297
0.59385008 0.9948104 2.3563297
0.5901323 1.008411 2.3563297
0.5894134 1.016981 2.3563297
0.59199119 1.0115736 2.3563297
0.5894134 1.0258492 2.3563297
0.58497667 0.98815924 2.3710208
0.58730364 0.99311346 2.3710208
0.5894134 1.0014616 2.3710208
0.59385008 1.0036787 2.3710208
0.58575797 1.0161132 2.371021
0.5933494 1.0126128 2.3710208
0.57995039 1.023772 2.3710208
0.58309001 1.0249873 2.371021
0.57771724 1.0326996 2.3710208
0.58772767 0.98846424 2.3866892
0.59364164 0.9887957 2.3866892
0.58805114 0.99196124 2.3866892
0.59479231 0.99196124 2.3866892
0.58846712 1.0067993 2.3866892
0.58735055 1.0157545 2.3866892
0.5754841 1.026004 2.3866892
0.58355707 1.0234016 2.3866892
0.58288044 1.0346695 2.3866892
0.57835674 1.0459722 2.3866892
0.59703934 0.98746979 2.4013762
0.60060209 0.99179137 2.4013762
0.58660412 1.0053591 2.4013762
0.58548063 1.0154872 2.4013762
0.58740419 1.0211062 2.4013762
0.58406609 0.98797882 2.4170406
0.58460981 0.99498397 2.4170408
0.59437263 0.99254799 2.4170406
0.60016596 0.99406129 2.4170406
0.57554853 1.0031728 2.4170406
0.58263087 1.0042276 2.4170406
0.57782614 1.0145541 2.4170406
0.58258098 1.0144624 2.4170406
0.58364487 1.0264275 2.4170406
0.58389968 1.0357994 2.4170406
0.58238131 1.0441456 2.4170406
0.45943254 0.84937197 2.4336812
0.45943254 0.85401708 2.4336812
0.57782608 0.98723882 2.4336812
0.58411258 0.98947728 2.4336812
0.59099263 0.98947728 2.4336812
0.60060209 0.98723882 2.4336812
0.56849688 0.99559355 2.4336812
0.5758853 0.99406636 2.4336812
0.59942639 0.99586862 2.4336812
0.56676233 1.0031841 2.4336812
0.60816169 1.0026597 2.4336812
0.56838745 1.0134914 2.4336812
0.57327092 1.0145541 2.4336812
0.56805921 1.0215653 2.4336812
0.57437265 1.0237913 2.4336812
0.57570374 1.0322614 2.4336812
0.58181924 1.0376093 2.4336812
0.58153319 1.0467244 2.4336812
0.58096117 1.0558456 2.4336812
0.4454892 0.83543676 2.4503198
0.45318571 0.83641857 2.4503198
0.44548923 0.84472692 2.4503198
0.45361203 0.84453017 2.4503195
0.41939038 0.85515332 2.4503198
0.42631483 0.85515332 2.4503198
0.44492188 0.85492611 2.4503198
0.45323548 0.85556543 2.4503198
0.46254423 0.85044819 2.4503198
0.45478475 0.86330724 2.4503198
0.56805921 0.99406129 2.4503198
0.57449538 0.99496496 2.4503198
0.58326936 0.99356186 2.4503198
0.59250188 0.99125504 2.4503198
0.6035139 0.99801457 2.4503198
0.56711221 1.0074027 2.4503198
0.56468576 1.0145673 2.4503198
0.56758571 1.0271566 2.4503198
0.56805921 1.0307333 2.4503198
0.57598603 1.0455576 2.4503198
0.58557749 1.0650729 2.4503198
0.56480408 0.75134689 2.465977
0.58326936 0.75596052 2.465977
0.59019375 0.75596052 2.465977
0.580275 0.76111549 2.465977
-0.024099328 0.81303585 2.465977
-0.014740798 0.81303585 2.4659772
-0.0030426362 0.81303585 2.465977
0.0039762612 0.81303585 2.465977
0.44494566 0.81714177 2.4659772
0.45318571 0.81537414 2.465977
0.46112636 0.81882721 2.465977
0.53463054 0.81826985 2.465977
-0.023937205 0.8261466 2.465977
-0.019289419 0.8261466 2.465977
0.059722945 0.8261466 2.465977
0.066694617 0.8261466 2.465977
0.4431653 0.82150149 2.465977
0.45372921 0.82209313 2.4659772
0.46112636 0.82353705 2.465977
0.54744148 0.82936168 2.465977
0.55612952 0.82472718 2.465977
-0.026261097 0.83311421 2.465977
-0.019289419 0.83311421 2.465977
0.059722945 0.83079165 2.465977
0.066694617 0.83311421 2.465977
0.073666304 0.83311421 2.465977
0.19683264 0.83543676 2.465977
0.20612821 0.83543676 2.465977
0.21619841 0.83388841 2.4659772
0.22471936 0.83311421 2.465977
0.23169103 0.83543676 2.465977
0.30605561 0.83543676 2.465977
0.31535119 0.83543676 2.4659772
0.33626622 0.83543676 2.465977
0.34323791 0.83543676 2.465977
0.38486803 0.837816 2.4659772
0.42862299 0.83900565 2.465977
0.43442899 0.835078 2.465977
0.44450456 0.8332262 2.465977
0.45318571 0.83174205 2.465977
0.54595309 0.83531165 2.465977
0.55364352 0.83459777 2.465977
-0.014740799 0.84343338 2.465977
0.063636892 0.84460258 2.465977
0.074165232 0.84577167 2.465977
0.19683264 0.84008181 2.465977
0.20612821 0.84008181 2.465977
0.21619841 0.84163016 2.4659772
0.22394472 0.84163016 2.4659772
0.23169103 0.84008181 2.465977
0.30605561 0.84008181 2.465977
0.31535119 0.84008187 2.4659772
0.33626622 0.84008181 2.465977
0.34323791 0.84008181 2.465977
0.36415291 0.84240437 2.465977
0.37577239 0.84240437 2.465977
0.38269451 0.84322798 2.4659772
0.39901131 0.84704947 2.465977
0.405983 0.84704947 2.465977
0.41688752 0.8479259 2.465977
0.42541084 0.84538299 2.465977
0.43498823 0.84397793 2.465977
0.44084141 0.84008181 2.465977
0.46254423 0.84577167 2.465977
0.55207556 0.84352684 2.4659772
-0.010169037 0.85243678 2.465977
0.40675765 0.85556543 2.4659772
0.41527861 0.85633957 2.465977
0.43554747 0.85515332 2.465977
0.54443133 0.85980129 2.465977
0.55362481 0.85593462 2.465977
0.41664919 0.86289608 2.4659772
0.42631483 0.86207372 2.465977
0.43554747 0.86207372 2.465977
0.4454892 0.86795229 2.465977
0.45246086 0.86795229 2.465977
0.54443133 0.86447781 2.465977
0.55300999 0.86759555 2.4659772
0.46254423 0.87383085 2.465977
0.47369331 0.88162518 2.4659772
0.48337147 0.89102274 2.465977
0.57367003 0.99578822 2.465977
0.5839324 0.99284089 2.465977
0.59421831 0.99336946 2.465977
0.56460893 1.005648 2.465977
0.57097942 1.0026597 2.465977
0.56249595 1.0166299 2.465977
0.56249595 1.0235504 2.465977
0.56633162 1.0351752 2.465977
0.57097942 1.0398203 2.465977
0.57097942 1.0444653 2.465977
0.580275 1.0537555 2.465977
0.58457971 1.0643073 2.465977
0.58888435 1.0749221 2.465977
0.56168383 0.75647044 2.4826107
0.56478238 0.76266384 2.4826107
0.57330334 0.76343805 2.4826107
0.58492279 0.7657606 2.4826107
0.59731686 0.76421225 2.4826107
0.56633162 0.77040565 2.4826107
0.57330334 0.77505076 2.4826107
0.58558679 0.77372372 2.4826107
0.59654224 0.77505076 2.4826107
0.57330334 0.78434086 2.4826107
0.58767295 0.78698659 2.4826107
0.59654218 0.78666341 2.4826107
0.21922246 0.79900628 2.4826107
0.58724666 0.79595357 2.4826107
0.59654218 0.79595357 2.4826107
0.06948597 0.80835932 2.4826107
0.076504871 0.80835932 2.4826107
0.21607138 0.80469763 2.4826107
0.44850641 0.80835932 2.4826107
0.45318571 0.80835932 2.4826107
0.53181535 0.80705255 2.4826107
0.54124051 0.80940747 2.4826107
0.58724666 0.80524373 2.4826107
0.59654224 0.80292118 2.4826107
-0.026835743 0.81643468 2.4826107
-0.01563069 0.81737006 2.4826107
-0.0030426362 0.81771243 2.4826107
0.0086555267 0.81771243 2.4826107
0.016497076 0.81808412 2.4826107
0.067146339 0.81537414 2.4826107
0.076504871 0.81537414 2.4826107
0.20682624 0.81728446 2.4826107
0.21652201 0.81632924 2.4826107
0.22547774 0.81495142 2.4826107
0.23364547 0.81495398 2.4826107
0.24261878 0.81771243 2.4826107
0.43914789 0.81771243 2.4826107
0.44538689 0.81459475 2.4826107
0.46426815 0.8156873 2.4826107
0.50699723 0.81771243 2.4826107
0.51635575 0.81537414 2.4826107
0.52493441 0.81615353 2.4826107
0.53338623 0.8156873 2.4826107
0.54889661 0.81608039 2.4826107
0.57718623 0.81771243 2.4826107
0.58663839 0.81516963 2.4826107
0.59688234 0.81423438 2.4826107
-0.027035728 0.8230499 2.4826107
-0.013739151 0.82372075 2.4826107
-0.003042636 0.82472718 2.4826107
0.0063300552 0.82530957 2.4826107
0.015674423 0.82472718 2.4826107
0.025032954 0.82706547 2.4826107
0.035088997 0.82675922 2.4826107
0.04360285 0.82660604 2.4826107
0.053433564 0.82576257 2.4826107
0.064656138 0.82287258 2.4826107
0.076161757 0.82334578 2.4826107
0.084933363 0.82353705 2.4826107
0.094581336 0.82382405 2.4826107
0.10387692 0.82382405 2.4826107
0.1126586 0.82490456 2.4826107
0.12095789 0.82706547 2.4826107
0.18556708 0.82441396 2.4826107
0.19515957 0.82543689 2.4826107
0.20425391 0.82412517 2.4826107
0.21618353 0.82353705 2.4826107
0.22471936 0.82382405 2.4826107
0.23479985 0.82353705 2.4826107
0.24383762 0.82389832 2.4826107
0.42978936 0.82472718 2.4826107
0.43680826 0.82472718 2.4826107
0.46583897 0.82353705 2.4826107
0.47212243 0.82667696 2.4826107
0.50699723 0.82472718 2.4826107
0.55066574 0.82824689 2.4826107
0.56527102 0.82745928 2.4826107
0.57495815 0.82493007 2.4826107
0.58538175 0.8244139 2.4826107
0.59654218 0.82382405 2.4826107
-0.03345786 0.83641857 2.4826107
-0.010061533 0.83174205 2.4826107
-0.003042636 0.83408028 2.4826107
0.0063300557 0.83469599 2.4826107
0.015674423 0.83408034 2.4826107
0.025032952 0.83408034 2.4826107
0.033529237 0.83298415 2.4826107
0.04345569 0.83311421 2.4826107
0.052751262 0.83311421 2.4826107
0.078314088 0.83311421 2.4826107
0.085285768 0.83311421 2.4826107
0.094581336 0.83311421 2.4826107
0.10387692 0.83311421 2.4826107
0.11379371 0.83283979 2.4826107
0.12394444 0.83385563 2.4826107
0.13375092 0.83527017 2.4826107
0.14435422 0.83641857 2.4826107
0.15605238 0.83641857 2.4826107
0.16541091 0.83641857 2.4826107
0.17476945 0.83641857 2.4826107
0.18521319 0.83311415 2.4826107
0.19683264 0.83079165 2.4826107
0.20612821 0.83079165 2.4826107
0.21309988 0.83079165 2.4826107
0.23478958 0.83234 2.4826107
0.24410801 0.83283979 2.4826107
0.25229955 0.8335973 2.4826107
0.28746447 0.83311421 2.4826107
0.29493862 0.83452094 2.4826107
0.30363756 0.83421564 2.4826107
0.31535119 0.83079165 2.4826107
0.32752034 0.83452094 2.4826107
0.33626622 0.83079165 2.4826107
0.34672415 0.83592767 2.4826107
0.35605907 0.83592767 2.4826107
0.36538613 0.83592767 2.4826107
0.37351173 0.83576405 2.4826107
0.38971576 0.83543676 2.4826107
0.39469489 0.83641857 2.4826107
0.42640352 0.83528692 2.4826107
0.43680826 0.83174205 2.4826107
0.50353974 0.83295673 2.4826107
0.55612952 0.83641857 2.4826107
0.56314838 0.83408034 2.4826107
0.57262778 0.8331942 2.4826107
0.58492279 0.83311415 2.4826107
0.59421831 0.83311421 2.4826107
-0.03345786 0.84109509 2.4826107
-0.026438961 0.84577167 2.4826107
-0.01479969 0.84350818 2.4826107
-0.0030643088 0.84708631 2.4826107
0.0055754497 0.84551638 2.4826107
0.015786074 0.84708631 2.4826107
0.025812833 0.84265393 2.4826107
0.034391485 0.84343338 2.4826107
0.04345569 0.84008181 2.4826107
0.052937772 0.84292674 2.4826107
0.078844503 0.84577167 2.4826107
0.085566714 0.84292674 2.4826107
0.094581336 0.84008181 2.4826107
0.10465156 0.84163016 2.4826107
0.1126586 0.84352684 2.4826107
0.12329753 0.84343338 2.4826107
0.13382587 0.84226418 2.4826107
0.14435422 0.84109509 2.4826107
0.15605238 0.84109509 2.4826107
0.16601647 0.84174979 2.4826107
0.17398563 0.84196794 2.4826107
0.18521316 0.84472686 2.4826107
0.19683264 0.84704947 2.4826107
0.20612821 0.84704947 2.4826107
0.21464914 0.84782362 2.4826107
0.225494 0.84782362 2.4826107
0.23447971 0.84565592 2.4826107
0.24331051 0.84472692 2.4826107
0.25283191 0.84420949 2.4826107
0.26367545 0.84343338 2.4826107
0.27303398 0.84343338 2.4826107
0.28488922 0.84348947 2.4826107
0.29366153 0.84163016 2.4826107
0.30450636 0.84472692 2.4826107
0.31442162 0.84658498 2.4826107
0.32774529 0.84163016 2.4826107
0.33626622 0.84704947 2.4826107
0.34672374 0.84472692 2.4826107
0.35485739 0.84472692 2.4826107
0.36415294 0.84937197 2.4826107
0.37228656 0.84588814 2.4826107
0.38971576 0.84008181 2.4826107
0.39492899 0.84295571 2.4826107
0.40501821 0.84058845 2.4826107
0.41406718 0.84141606 2.4826107
0.42277047 0.84109509 2.4826107
0.54493856 0.84620988 2.4826107
0.55463487 0.84484142 2.4826107
0.56343031 0.84435284 2.4826107
0.5725193 0.84440351 2.4826107
0.58359492 0.84406334 2.4826107
0.59421831 0.84008181 2.4826107
-0.024099328 0.85044819 2.4826107
-0.014764688 0.85246748 2.4826107
-0.0030859818 0.85782063 2.4826107
0.0063608824 0.85179615 2.4826107
0.015786074 0.85179615 2.4826107
0.025113778 0.85112214 2.4826107
0.034391485 0.85278642 2.4826107
0.04375001 0.85278642 2.4826107
0.053108543 0.85278642 2.4826107
0.064806707 0.85278654 2.4826107
0.076504871 0.85278642 2.4826107
0.085863397 0.85278648 2.4826107
0.095221929 0.85044819 2.4826107
0.10224082 0.85044819 2.4826107
0.11627862 0.85044819 2.4826107
0.12329753 0.85044819 2.4826107
0.13438639 0.85493606 2.4826107
0.14302614 0.85179615 2.4826107
0.17710908 0.85512471 2.4826107
0.18603897 0.8578732 2.4826107
0.19683264 0.85401708 2.4826107
0.20612821 0.85401708 2.4826107
0.21542378 0.85401708 2.4826107
0.22624135 0.85980129 2.4826107
0.23559989 0.85980129 2.4826107
0.2449584 0.85980129 2.4826107
0.25548673 0.85629386 2.4826107
0.26367545 0.85512465 2.4826107
0.27303398 0.85512483 2.4826107
0.2840637 0.85512477 2.4826107
0.29565045 0.85512471 2.4826107
0.32567573 0.85512471 2.4826107
0.33308458 0.85824245 2.4826107
0.34400284 0.85824245 2.4826107
0.35411474 0.8578732 2.4826107
0.36415294 0.85401708 2.4826107
0.37472105 0.85690916 2.4826107
0.385068 0.85401714 2.4826107
0.39746207 0.85556543 2.4826107
0.40365911 0.85866213 2.4826107
0.54443133 0.85278642 2.4826107
0.55145025 0.85512471 2.4826107
0.56168383 0.85633957 2.4826107
0.572258 0.85594511 2.4826107
0.58457971 0.85690916 2.4826107
0.5966832 0.85356587 2.4826107
-0.0030859818 0.86256379 2.4826107
0.0064058714 0.86256379 2.4826107
0.19582613 0.86447781 2.4826107
0.20284504 0.86447781 2.4826107
0.26601508 0.86447781 2.4826107
0.27069435 0.86447781 2.4826107
0.33386445 0.86447781 2.4826107
0.34322298 0.86447781 2.4826107
0.35492116 0.86447781 2.4826107
0.36661929 0.86447781 2.4826107
0.37363818 0.86447781 2.4826107
0.38767597 0.86447781 2.4826107
0.39469489 0.86447781 2.4826107
0.405983 0.86330724 2.4826107
0.41527858 0.86795229 2.4826107
0.54677099 0.86915433 2.4826107
0.56080878 0.86915433 2.4826107
0.5701673 0.86447781 2.4826107
0.26319733 0.87063557 2.4826107
0.42534876 0.87414575 2.4826107
0.4330951 0.87414575 2.4826107
0.4431653 0.8725974 2.4826107
0.45400095 0.87555242 2.4826107
0.46254423 0.87850744 2.4826107
0.58957058 0.87491989 2.4826107
0.44850641 0.88318396 2.4826107
0.45318571 0.88318396 2.4826107
0.47055155 0.88476509 2.4826107
0.58802128 0.88498425 2.4826107
0.4881174 0.89102274 2.4826107
0.58492279 0.89350021 2.4826107
0.47658202 0.90656668 2.4826107
0.48126128 0.90422839 2.4826107
0.5868122 0.9053207 2.4826107
0.59824294 0.90656668 2.4826107
0.47658202 0.91358149 2.4826107
0.48282105 0.91436094 2.4826107
0.57952583 0.91591972 2.4826107
0.58623284 0.91567767 2.4826107
0.59690142 0.91540372 2.4826107
0.4976387 0.92761111 2.4826107
0.57952583 0.9205963 2.4826107
0.58594316 0.92569745 2.4826107
0.59555984 0.9242093 2.4826107
0.6029222 0.92761111 2.4826107
0.58538175 0.93611163 2.4826107
0.59421831 0.9329834 2.4826107
0.6029222 0.93462586 2.4826107
0.49882716 0.94128329 2.4826107
0.50353974 0.94128329 2.4826107
0.57537752 0.94749761 2.4826107
0.58376086 0.94343483 2.4826107
0.57330334 0.95388627 2.4826107
0.58385605 0.95377541 2.4826107
0.59356362 0.95567036 2.4826107
0.57330334 0.96317637 2.4826107
0.58259892 0.96317637 2.4826107
0.59356362 0.9650234 2.4826107
0.57543206 0.97527057 2.4826107
0.58359492 0.97545272 2.4826107
0.59356362 0.97437644 2.4826107
0.57438534 0.98579741 2.4826107
0.58492279 0.98640192 2.4826107
0.59506083 0.9850657 2.4826107
0.55703604 0.99801457 2.4826107
0.56400776 0.99801457 2.4826107
0.57290512 0.99322599 2.4826107
0.59886611 0.99336946 2.4826107
0.60554194 0.99671769 2.4826107
0.54774046 1.0073047 2.4826107
0.5551846 1.0041335 2.4826107
0.56319922 1.0025638 2.4826107
0.5701673 1.0000974 2.4826107
0.60760146 1.0000974 2.4826107
0.61540025 1.004774 2.4826107
0.54774046 1.0119498 2.4826107
0.55471212 1.0142723 2.4826107
0.56168383 1.0142723 2.4826107
0.62606722 1.0166409 2.4826107
0.5554868 1.0227883 2.4826107
0.56168383 1.0235624 2.4826107
0.55703604 1.0305301 2.4826107
0.56168383 1.0305301 2.4826107
0.56548804 1.0421863 2.4826107
0.5701673 1.0468628 2.4826107
0.58888435 1.0795987 2.4826107
0.56056952 0.76496112 2.4992418
0.60760146 0.76627046 2.4992418
0.61228073 0.76627046 2.4992418
0.56548804 0.77094704 2.4992418
0.60760146 0.77328527 2.4992418
0.61228073 0.77328527 2.4992418
0.5701673 0.78497666 2.4992418
0.58420509 0.78965318 2.4992418
0.60760152 0.78497666 2.4992418
0.61228073 0.78030008 2.4992418
0.15952024 0.79998779 2.4992418
0.16658914 0.79998779 2.4992418
0.20518467 0.79900634 2.4992418
0.22624135 0.79900628 2.4992418
0.23559989 0.79666799 2.4992418
0.24434696 0.79527795 2.4992418
0.44850641 0.79900628 2.4992418
0.45376688 0.79966062 2.4992418
0.46112636 0.79998779 2.4992418
0.52710271 0.79998779 2.4992418
0.53181535 0.79998779 2.4992418
0.57578242 0.79620034 2.4992418
0.58420509 0.79666799 2.4992418
0.064806707 0.80835932 2.4992418
0.085863397 0.80835932 2.4992418
0.098256499 0.80940747 2.4992418
0.1053254 0.80940747 2.4992418
0.15952024 0.80705255 2.4992418
0.16423284 0.80705255 2.4992418
0.17710908 0.80835932 2.4992418
0.18412797 0.80835932 2.4992418
0.19440532 0.80748814 2.4992418
0.20542268 0.80697525 2.4992418
0.21817212 0.80714989 2.4992418
0.22624135 0.80602109 2.4992418
0.2364473 0.80653685 2.4992418
0.24434696 0.80940747 2.4992418
0.42578191 0.80705249 2.4992418
0.43520707 0.80705255 2.4992418
0.44461688 0.8057546 2.4992418
0.45318571 0.8036828 2.4992418
0.46348268 0.80705255 2.4992418
0.47055155 0.80705255 2.4992418
0.50825238 0.80940747 2.4992418
0.51495421 0.80658358 2.4992418
0.52440161 0.80658364 2.4992418
0.57620037 0.80636495 2.4992418
0.58420509 0.80602109 2.4992418
-0.035097059 0.81808412 2.4992418
0.025032952 0.81537414 2.4992418
0.034513969 0.81826985 2.4992418
0.043905832 0.81826979 2.4992418
0.053234648 0.81495523 2.4992418
0.060270205 0.81495523 2.4992418
0.085863397 0.81537414 2.4992418
0.095221929 0.81537414 2.4992418
0.10380059 0.81615353 2.4992418
0.11159936 0.81771243 2.4992418
0.15952024 0.81647229 2.4992418
0.16580372 0.81725729 2.4992418
0.17595874 0.81652516 2.4992418
0.18412797 0.81537414 2.4992418
0.1934865 0.81537414 2.4992418
0.20401484 0.81420505 2.4992418
0.2153073 0.81357658 2.4992418
0.23878694 0.81357658 2.4992418
0.24434696 0.81647229 2.4992418
0.4247781 0.81688565 2.4992418
0.4350594 0.81672031 2.4992418
0.44227597 0.81647229 2.4992418
0.47290787 0.81647229 2.4992418
0.4976387 0.81537414 2.4992418
0.50644666 0.81357658 2.4992418
0.5141632 0.81287456 2.4992418
0.52474642 0.81411731 2.4992418
0.54770118 0.81664759 2.4992418
0.55328792 0.81467736 2.4992418
0.57527483 0.81577837 2.4992418
0.58420509 0.81303585 2.4992418
-0.044063892 0.82633632 2.4992418
-0.036374081 0.82470554 2.4992418
0.025032954 0.82238895 2.4992418
0.034391485 0.82238895 2.4992418
0.04375001 0.82238895 2.4992418
0.050768912 0.82238895 2.4992418
0.088203028 0.82238895 2.4992418
0.095221929 0.82238895 2.4992418
0.10458046 0.82238895 2.4992418
0.11499496 0.82277167 2.4992418
0.12417576 0.82589197 2.4992418
0.13454588 0.82936168 2.4992418
0.14403774 0.82936168 2.4992418
0.15567534 0.82572681 2.4992421
0.16580366 0.82433051 2.4992418
0.17454717 0.82448924 2.4992418
0.18178834 0.82238895 2.4992418
0.19582613 0.82238895 2.4992418
0.24905956 0.82353705 2.4992418
0.25330678 0.82674909 2.4992418
0.26133582 0.82706547 2.4992418
0.36451817 0.82824689 2.4992418
0.41615498 0.82785308 2.4992418
0.42277047 0.82472718 2.4992418
0.43285078 0.82353705 2.4992418
0.47526416 0.82353705 2.4992418
0.48704565 0.82824689 2.4992418
0.49646398 0.82434165 2.4992418
0.51635575 0.82238895 2.4992418
0.52571428 0.82238895 2.4992418
0.55845511 0.82085687 2.4992418
0.56657928 0.82597315 2.4992418
0.57352746 0.82578766 2.4992418
-0.04547767 0.83531165 2.4992418
-0.03657737 0.83330095 2.4992418
0.13501635 0.83372211 2.4992418
0.14417335 0.83512509 2.4992421
0.15307371 0.83352685 2.4992418
0.16541091 0.83174205 2.4992418
0.17476945 0.83174205 2.4992418
0.25665656 0.83174205 2.4992418
0.26367545 0.83408028 2.4992418
0.27303398 0.83408028 2.4992418
0.28429031 0.83350343 2.4992418
0.29512978 0.83234942 2.4992418
0.30572948 0.832147 2.4992418
0.31508049 0.83247089 2.4992418
0.32566166 0.83234942 2.4992418
0.3350535 0.83234942 2.4992418
0.34444538 0.83234942 2.4992418
0.35412273 0.83553308 2.4992418
0.36451817 0.83531165 2.4992418
0.37394333 0.83766657 2.4992418
0.38101223 0.83766657 2.4992418
0.39765248 0.83806038 2.4992418
0.40493211 0.83740371 2.4992418
0.41352963 0.83385563 2.4992418
0.42277047 0.83174205 2.4992418
0.51767755 0.83295673 2.4992418
0.52474642 0.83531165 2.4992418
0.53181535 0.83531165 2.4992418
0.54269552 0.83647645 2.4992418
-0.043121371 0.84473133 2.4992418
-0.035797492 0.84343338 2.4992418
0.14903349 0.84109509 2.4992418
0.15605238 0.84577167 2.4992418
0.16307127 0.84577167 2.4992418
0.2800529 0.84109509 2.4992418
0.38506335 0.84278131 2.4992418
0.39319888 0.84359115 2.4992418
0.54299593 0.84555233 2.4992418
-0.03605248 0.85415107 2.4992418
-0.028778594 0.85044819 2.4992418
0.015786074 0.85650599 2.4992418
0.025113778 0.85581535 2.4992418
0.095221929 0.85512471 2.4992418
0.10458046 0.85512471 2.4992418
0.11159936 0.85512471 2.4992418
0.14302614 0.85650599 2.4992418
0.15456304 0.85488129 2.4992418
0.16494298 0.85606003 2.4992418
0.17398958 0.85824245 2.4992418
0.28473216 0.85980129 2.4992418
0.29876995 0.857463 2.4992418
0.30461901 0.85629386 2.4992418
0.31514737 0.85980129 2.4992418
0.32216626 0.85980129 2.4992418
0.5347724 0.857144 2.4992418
0.54124051 0.85415107 2.4992418
-0.014950799 0.86730695 2.4992418
-0.0030859818 0.86730695 2.4992418
0.0064058714 0.86730695 2.4992418
0.015897723 0.86730695 2.4992418
0.022854969 0.86121583 2.4992418
0.055843137 0.86592567 2.4992418
0.06526833 0.86592567 2.4992418
0.077049822 0.86592567 2.4992418
0.086475015 0.86592567 2.4992418
0.0959002 0.86592567 2.4992418
0.1029691 0.86592567 2.4992418
0.11475058 0.86357075 2.4992418
0.12417576 0.86121583 2.4992418
0.13454588 0.86730695 2.4992418
0.14302614 0.86121583 2.4992418
0.15009505 0.86357075 2.4992418
0.18412797 0.86447781 2.4992418
0.19114687 0.86447781 2.4992418
0.20986393 0.86447781 2.4992418
0.21688282 0.86447781 2.4992418
0.22624135 0.86447781 2.4992418
0.23326026 0.86447781 2.4992418
0.24729803 0.86447781 2.4992418
0.25431693 0.86447781 2.4992418
0.27537364 0.86447781 2.4992418
0.30812848 0.86447781 2.4992418
0.31592727 0.86603665 2.4992418
0.3245059 0.8668161 2.4992418
0.33386445 0.86915433 2.4992418
0.34322298 0.86915433 2.4992418
0.35492113 0.86915433 2.4992418
0.36661929 0.86915433 2.4992418
0.37831745 0.86447781 2.4992418
0.38455647 0.86759555 2.4992418
0.39469489 0.86915433 2.4992418
0.40171379 0.86915433 2.4992418
0.53241277 0.86572593 2.4992418
0.11793514 0.87205011 2.4992418
0.12505403 0.87205011 2.4992418
0.13454588 0.87205011 2.4992418
0.17837062 0.87063557 2.4992418
0.19722101 0.87534541 2.4992418
0.20428988 0.87534541 2.4992418
0.21371508 0.87534541 2.4992418
0.23963436 0.87063557 2.4992418
0.24434696 0.87063557 2.4992418
0.26555365 0.87534541 2.4992418
0.27497882 0.87534541 2.4992418
0.28440404 0.87299049 2.4992418
0.2938292 0.87299049 2.4992418
0.30325443 0.87299049 2.4992418
0.31428206 0.87484062 2.4992418
0.32216626 0.87383085 2.4992418
0.35744926 0.87534541 2.4992418
0.37629965 0.87534541 2.4992418
0.38101223 0.87534541 2.4992418
0.39703453 0.87383085 2.4992418
0.40483332 0.87538975 2.4992418
0.41263208 0.8769486 2.4992418
0.42043084 0.87850744 2.4992418
0.52977955 0.87817454 2.4992418
0.53320372 0.87205011 2.4992418
0.22471848 0.88153642 2.4992418
0.23183738 0.88153642 2.4992418
0.25319403 0.88153642 2.4992418
0.26031294 0.88153642 2.4992418
0.32917368 0.88005525 2.4992418
0.33624259 0.88241017 2.4992418
0.34566778 0.88005525 2.4992418
0.35509294 0.88005525 2.4992418
0.4251101 0.88552225 2.4992418
0.43758816 0.8863017 2.4992418
0.44382715 0.88318396 2.4992418
0.46348268 0.88947493 2.4992418
0.47290784 0.88947493 2.4992418
0.52133888 0.88390803 2.4992418
0.45405746 0.89418477 2.4992418
0.46363136 0.89620399 2.4992418
0.48574442 0.8957659 2.4992418
0.49286333 0.89339435 2.4992418
0.50349367 0.89728045 2.4992418
0.51544178 0.89728045 2.4992418
0.46488336 0.90510476 2.4992421
0.47644231 0.90829778 2.4992418
0.4858425 0.90711188 2.4992418
0.501104 0.90205693 2.4992418
0.45786497 0.9112432 2.4992418
0.46488386 0.91358149 2.4992418
0.47190276 0.9112432 2.4992418
0.48594055 0.9112432 2.4992418
0.46112636 0.92479885 2.4992418
0.47625256 0.92456555 2.4992418
0.48360091 0.92527282 2.4992418
0.47997674 0.94128329 2.4992418
0.17601433 0.79998779 2.5168483
0.18543953 0.79998779 2.5168483
0.15245134 0.80705255 2.5168483
0.16894543 0.80705255 2.5168483
0.17601432 0.80705255 2.5168483
0.18543953 0.80705255 2.5168483
0.036992755 0.81411731 2.5168483
0.04406165 0.81411731 2.5168483
0.0959002 0.81411731 2.5168483
0.10611083 0.8156873 2.5168483
0.11529165 0.81794494 2.5168486
0.12268107 0.81276059 2.5168483
0.13454589 0.81513226 2.5168486
0.14403774 0.81750375 2.5168483
0.15245134 0.81647229 2.5168483
0.16894543 0.81411731 2.5168483
0.17365803 0.81411731 2.5168483
-0.052732386 0.82880425 2.5168483
-0.048172284 0.82699013 2.5168483
0.12505403 0.82461852 2.5168483
0.13454588 0.82461852 2.5168483
0.14403774 0.82461852 2.5168483
0.15115662 0.82936168 2.5168483
-0.052918211 0.83168328 2.5168483
-0.047833968 0.83766657 2.5168483
-0.052918211 0.84596276 2.5168483
-0.047833968 0.84237641 2.5168483
-0.052918211 0.85307747 2.5168483
-0.04659031 0.85623968 2.5168483
-0.053289853 0.86384511 2.5168483
-0.043426357 0.86256379 2.5168483
-0.036307469 0.8649354 2.5168483
-0.026815616 0.86730695 2.5168483
0.10768169 0.86592567 2.5168483
0.14302614 0.86592567 2.5168483
-0.024614314 0.87817454 2.5168483
-0.015055798 0.87817454 2.5168483
-0.0031076549 0.87817454 2.5168483
0.0064508598 0.87817454 2.5168483
0.016009374 0.87817454 2.5168483
0.025470398 0.8751123 2.5168483
0.034881428 0.87205011 2.5168483
0.044373281 0.87205011 2.5168483
0.051492173 0.87205011 2.5168483
0.079967737 0.87679327 2.5168483
0.08471366 0.87679327 2.5168483
0.098951444 0.87679327 2.5168483
0.10607032 0.87679327 2.5168483
0.11556219 0.87679327 2.5168483
0.12505403 0.87679327 2.5168483
0.044684917 0.88295102 2.5168483
