# .PCD v0.7 - Point Cloud Data file format
VERSION 0.7
FIELDS x y z
SIZE 4 4 4
TYPE F F F
COUNT 1 1 1
WIDTH 181
HEIGHT 1
VIEWPOINT 0 0 0 1 0 0 0
POINTS 181
DATA ascii
-0.88336515 0.81499588 2.2406921
-0.86628169 0.7979573 2.2553985
-0.88401085 0.81479919 2.2553985
-0.87777853 0.81377649 2.2553985
-0.88269198 0.8268832 2.2553985
-0.87803161 0.82554483 2.2553985
-0.88131756 0.8365984 2.2553985
-0.87702161 0.83445168 2.2553985
-0.86972076 0.83336502 2.2553985
-0.88131756 0.84303862 2.2553985
-0.86628169 0.79366386 2.2681425
-0.87380326 0.81627148 2.2681425
-0.86337775 0.81781167 2.2681425
-0.85680878 0.81781167 2.2681425
-0.87467623 0.8230226 2.2681427
-0.86972076 0.82256198 2.2681425
-0.85461915 0.82218838 2.2681425
-0.87836826 0.83336502 2.2681425
-0.86692029 0.78760099 2.282845
-0.86467648 0.79447407 2.282845
-0.86475176 0.80655599 2.282845
-0.86337775 0.8134349 2.282845
-0.85899848 0.8134349 2.282845
-0.86972076 0.82904381 2.282845
-0.87404454 0.83336502 2.282845
-0.87702161 0.8408919 2.282845
-0.87313211 0.78653079 2.296566
-0.87213635 0.79592794 2.296566
-0.86370385 0.79667848 2.296566
-0.85790181 0.79957777 2.296566
-0.86225331 0.80392671 2.296566
-0.85717314 0.80734771 2.296566
-0.85169971 0.81489384 2.296566
-0.8458606 0.81781167 2.296566
-0.85023987 0.82218838 2.296566
-0.8458606 0.82218838 2.296566
-0.87651563 0.78717446 2.3112648
-0.88254285 0.79594314 2.3112648
-0.87552541 0.79253358 2.3112648
-0.86629766 0.79349166 2.3112648
-0.85717314 0.79569495 2.3112648
-0.88151765 0.80331928 2.3112648
-0.87025803 0.80192673 2.3112648
-0.86367738 0.80445498 2.3112648
-0.85023987 0.80905819 2.3112648
-0.86262721 0.81215334 2.3112648
-0.85373187 0.81584376 2.311265
-0.84664512 0.81748861 2.311265
-0.84526527 0.82506412 2.311265
-0.83835638 0.82775074 2.3112648
-0.84276527 0.83215708 2.3112648
-0.83835638 0.83215708 2.3112648
-0.82367277 0.77532208 2.3259618
-0.87025803 0.79749262 2.3259618
-0.863603 0.79749262 2.3259618
-0.85694796 0.79749262 2.3259618
-0.86138469 0.80414379 2.3259618
-0.85477471 0.80492938 2.3259621
-0.84927154 0.80728179 2.3259618
-0.85266054 0.81093544 2.3259618
-0.84927154 0.81174552 2.3259618
-0.83920121 0.81966317 2.3259618
-0.83636314 0.82463419 2.3259618
-0.82367277 0.77975619 2.3406568
-0.81701773 0.77975619 2.3406568
-0.8455649 0.78984481 2.3406568
-0.83420938 0.78456938 2.3406568
-0.82367277 0.7841903 2.3406568
-0.85436046 0.79574656 2.3406568
-0.84703839 0.79612255 2.3406568
-0.83476448 0.79527557 2.3406568
-0.82589114 0.79527557 2.3406568
-0.85597104 0.80281806 2.3406568
-0.84703839 0.8050499 2.3406568
-0.83254617 0.80414379 2.3406568
-0.82589114 0.80636084 2.3406568
-0.84480524 0.81174552 2.3406568
-0.84717423 0.83215708 2.3406568
-0.83394748 0.83215708 2.3406568
-0.85005897 0.78984481 2.3563297
-0.84257209 0.78942692 2.3563297
-0.83032781 0.78862441 2.3563297
-0.82367277 0.78862441 2.3563297
-0.81618869 0.78693247 2.3563299
-0.86354131 0.79882777 2.3563297
-0.85680014 0.79658204 2.3563297
-0.84927154 0.79389066 2.3563297
-0.82145447 0.79527557 2.3563297
-0.81701773 0.79749262 2.3563297
-0.87828159 0.80635464 2.3563297
-0.86803538 0.80331928 2.3563297
-0.82293338 0.80340481 2.3563297
-0.81701773 0.80414379 2.3563297
-0.80795974 0.80542648 2.3563299
-0.82145447 0.81079495 2.3563297
-0.81701773 0.81079495 2.3563297
-0.807239 0.81349593 2.3563297
-0.81410623 0.82577664 2.3563297
-0.80961215 0.82128519 2.3563297
-0.81494951 0.83122063 2.3563297
-0.86471045 0.7973125 2.3710208
-0.855663 0.79053086 2.3710208
-0.81606972 0.79680675 2.371021
-0.80814439 0.79749262 2.3710208
-0.8737579 0.80409408 2.3710208
-0.8316288 0.8067103 2.3710208
-0.81301934 0.80479246 2.371021
-0.80736506 0.805565 2.3710208
-0.8316288 0.81132394 2.3710208
-0.81258106 0.81079495 2.3710208
-0.80511802 0.81230223 2.3710208
-0.81860036 0.82577664 2.3710208
-0.81588542 0.8320927 2.3710208
-0.80364025 0.85608661 2.3710208
-0.79459274 0.85608661 2.3710208
-0.78629935 0.85684013 2.3710208
-0.87072772 0.79603183 2.3866892
-0.86557627 0.7966432 2.3866892
-0.8775605 0.80286062 2.3866892
-0.80062395 0.80781072 2.3866892
-0.82701248 0.81132394 2.3866892
-0.80062395 0.81230223 2.3866892
-0.80511802 0.82128519 2.3866892
-0.81042582 0.83122063 2.3866892
-0.78328347 0.85382605 2.3866892
-0.87983811 0.80058438 2.4013762
-0.81151009 0.80968946 2.4013762
-0.81202072 0.81705546 2.4013762
-0.80378938 0.81779408 2.4013762
-0.79612988 0.81679368 2.4013762
-0.80378938 0.82231617 2.4013762
-0.81042582 0.8357417 2.4013762
-0.80439419 0.83423471 2.4013762
-0.80318785 0.8438797 2.4013765
-0.79383886 0.84779799 2.4013762
-0.78780717 0.84704447 2.4013762
-0.87445152 0.79694885 2.4170406
-0.82239616 0.81593752 2.4170406
-0.81547165 0.81593752 2.4170406
-0.80794466 0.81986892 2.4170406
-0.81547165 0.82055116 2.4170406
-0.80377018 0.82473814 2.4170406
-0.79597116 0.82473117 2.4170406
-0.81406081 0.83079165 2.4170406
-0.80137837 0.83122063 2.4170406
-0.7945928 0.83348119 2.4170406
-0.81268764 0.84026277 2.4170406
-0.80590206 0.84930497 2.4170406
-0.79483235 0.84171677 2.4170406
-0.78780717 0.84026277 2.4170406
-0.81316352 0.8067103 2.4336812
-0.81476617 0.81292892 2.4336812
-0.81406081 0.82382405 2.4336812
-0.80941302 0.82382405 2.4336812
-0.80941302 0.83079165 2.4336812
-0.7932893 0.83700478 2.4336812
-0.82519233 0.80713826 2.4503198
-0.81684971 0.80573261 2.4503198
-0.82239616 0.81132394 2.4503198
-0.80941302 0.81685644 2.4503198
-0.80476522 0.82382405 2.4503198
-0.83265197 0.80756629 2.465977
-0.81406081 0.80756629 2.465977
-0.80592716 0.80640495 2.465977
-0.7954697 0.80756629 2.465977
-0.80360329 0.81337261 2.465977
-0.7954697 0.81453389 2.465977
-0.81255555 0.79900628 2.4826107
-0.80319691 0.79666799 2.4826107
-0.79617804 0.79900628 2.4826107
-0.82893294 0.80835932 2.4826107
-0.81584853 0.80349243 2.4826107
-0.80242682 0.80431348 2.4826107
-0.79323512 0.80633014 2.4826107
-0.79104757 0.81403458 2.4826107
-0.78617412 0.81221133 2.4826107
-0.81957442 0.79900628 2.4992418
-0.79149878 0.79900628 2.4992418
-0.83483744 0.80940747 2.4992418
-0.82425368 0.8036828 2.4992418
-0.78681952 0.81303585 2.4992418
