# .PCD v0.7 - Point Cloud Data file format
VERSION 0.7
FIELDS x y z
SIZE 4 4 4
TYPE F F F
COUNT 1 1 1
WIDTH 133
HEIGHT 1
VIEWPOINT 0 0 0 1 0 0 0
POINTS 133
DATA ascii
0.59809089 0.67786568 1.7907364
0.60491258 0.67786568 1.795166
0.61002886 0.67786568 1.7995957
0.59735125 0.68124235 1.7907366
0.60661799 0.68127459 1.7995957
0.61472321 0.68460327 1.7995957
0.61433959 0.69659883 1.7995958
0.62062502 0.69660294 1.7995957
0.61386353 0.7012369 1.7995957
0.60320717 0.68127459 1.8084542
0.61723083 0.68812245 1.8084542
0.60373652 0.69617629 1.8084543
0.61298811 0.69236273 1.8084542
0.62062502 0.69151467 1.8084542
0.60373652 0.7012369 1.8084543
0.60577345 0.68811244 1.8182962
0.61291969 0.68810433 1.8182961
0.60316932 0.69393766 1.8182962
0.60280561 0.70593154 1.8182961
0.61383671 0.70847577 1.8182962
0.62062502 0.70847571 1.8182961
0.60535121 0.71186787 1.8182961
0.61514509 0.71536314 1.8182961
0.62026137 0.71536314 1.8182961
0.59587193 0.68545967 1.8271532
0.60541761 0.68804467 1.8271532
0.61643696 0.68631601 1.8271532
0.59826356 0.6944164 1.8271533
0.60296702 0.69147772 1.8271532
0.5997963 0.70513654 1.8271532
0.5997963 0.7119543 1.8271532
0.60434413 0.7153632 1.8271532
0.61343974 0.71877205 1.8271532
0.62026137 0.71877199 1.8271532
0.60958195 0.72742224 1.8271532
0.61461115 0.72604787 1.8271532
0.62026137 0.72558975 1.8271532
0.60958195 0.73256046 1.8271532
0.61300945 0.73256046 1.8271532
0.61643696 0.7668156 1.8271532
0.61643696 0.77024114 1.8271532
0.59291089 0.68740785 1.8360095
0.58640629 0.69163054 1.8360095
0.59442437 0.6945489 1.8360097
0.59632915 0.70570064 1.8360097
0.59693885 0.71557325 1.8360097
0.60272694 0.71885842 1.8360095
0.57496893 0.72963011 1.8360095
0.59801185 0.7248854 1.8360095
0.60416877 0.72626954 1.8360097
0.57386827 0.73403341 1.8360096
0.58358395 0.73824012 1.8360095
0.59909117 0.73651814 1.8360095
0.60485631 0.73644251 1.8360099
0.61643696 0.73769873 1.8360097
0.62329203 0.73769873 1.8360095
0.59919524 0.7465471 1.8360095
0.60549676 0.74605632 1.8360099
0.61643696 0.74626255 1.8360097
0.62329209 0.74626255 1.8360095
0.59914321 0.75358206 1.8360095
0.6057927 0.75591451 1.8360099
0.61643696 0.75653899 1.8360097
0.62329203 0.75482631 1.8360095
0.59909111 0.76062632 1.8360095
0.60612285 0.76407135 1.8360097
0.61643696 0.76339006 1.8360095
0.6072399 0.77391195 1.8360097
0.61643696 0.77537942 1.8360097
0.62329203 0.77709216 1.8360095
0.6078397 0.78293014 1.8360097
0.61643696 0.78394318 1.8360097
0.62329209 0.78394318 1.8360095
0.58294356 0.79718119 1.8360095
0.60953104 0.79221219 1.8360095
0.61575145 0.79216439 1.8360096
0.57735789 0.69880831 1.845849
0.58844531 0.69686258 1.845849
0.59195954 0.69584256 1.845849
0.57735789 0.7022875 1.845849
0.58875304 0.70207793 1.845849
0.59219903 0.70552194 1.845849
0.5876044 0.71815008 1.845849
0.59204936 0.71585435 1.845849
0.57635093 0.72793376 1.845849
0.58573776 0.72661662 1.845849
0.59449643 0.72676009 1.845849
0.57841492 0.73307413 1.845849
0.58668542 0.73514056 1.845849
0.59392208 0.73651814 1.845849
0.57669193 0.74512821 1.845849
0.58530706 0.74512815 1.845849
0.59495586 0.74547261 1.845849
0.57669193 0.75029421 1.845849
0.59541225 0.75450414 1.845849
0.59628826 0.76458871 1.845849
0.60253716 0.76579237 1.845849
0.59542477 0.77512944 1.8458488
0.60253716 0.77440238 1.845849
0.57601821 0.78679919 1.845849
0.58535016 0.78543842 1.845849
0.59505832 0.78499067 1.8458488
0.60391557 0.78542328 1.845849
0.58224213 0.7934019 1.845849
0.59727389 0.79455936 1.845849
0.60555238 0.795497 1.845849
0.58527464 0.69874418 1.8547039
0.58567786 0.70537031 1.8547039
0.5916003 0.70893395 1.8547039
0.58675259 0.71654743 1.8547039
0.5916003 0.7123946 1.8547039
0.57774955 0.72796768 1.8547039
0.58259732 0.72554523 1.8547039
0.58640629 0.75392276 1.8547039
0.5916003 0.75565308 1.8547039
0.59223241 0.76389563 1.8547039
0.58742839 0.7794745 1.8547039
0.59260428 0.77617514 1.8547039
0.58586973 0.78611958 1.8547039
0.59135288 0.78645939 1.8547039
0.58730692 0.79436892 1.8547039
0.5923866 0.79477465 1.8547039
0.58467495 0.80237222 1.8547039
0.59577918 0.80364776 1.8547039
0.57714355 0.70764369 1.8645419
0.5808391 0.70924586 1.8645419
0.58319396 0.71556896 1.8645419
0.58199954 0.72432232 1.8645419
0.58432031 0.76491272 1.8645418
0.59128273 0.76839191 1.8645419
0.58606088 0.77187109 1.8645419
0.59128273 0.77187109 1.8645419
0.58042896 0.7200138 1.8743789
