# .PCD v0.7 - Point Cloud Data file format
VERSION 0.7
FIELDS x y z
SIZE 4 4 4
TYPE F F F
COUNT 1 1 1
WIDTH 160
HEIGHT 1
VIEWPOINT 0 0 0 1 0 0 0
POINTS 160
DATA ascii
0.68333936 -0.1622241 1.9550109
0.69588119 -0.16263728 1.9550109
0.70343024 -0.16436131 1.955011
0.71442825 -0.16329722 1.955011
0.74254537 -0.16110756 1.9550109
0.67547816 -0.15532224 1.955011
0.68440139 -0.151931 1.955011
0.69544011 -0.15307878 1.955011
0.70274323 -0.15234891 1.955011
0.71470207 -0.15335248 1.9550111
0.72538298 -0.151619 1.955011
0.73524219 -0.15015924 1.9550109
0.74437112 -0.15380867 1.9550111
0.76445472 -0.15015924 1.9550109
0.68498057 -0.14669554 1.9550109
0.69568348 -0.14529333 1.9550109
0.70420384 -0.14468507 1.9550111
0.71515858 -0.14468507 1.9550111
0.72611332 -0.14468507 1.9550111
0.73524219 -0.14468507 1.9550109
0.74437112 -0.14468507 1.9550111
0.76628053 -0.14468507 1.9550111
0.70420384 -0.13556147 1.9550111
0.71515858 -0.13556148 1.9550111
0.72611332 -0.13556148 1.9550111
0.7454145 -0.13608283 1.9550111
0.75532579 -0.13191204 1.9550109
0.76523727 -0.13608283 1.9550111
0.71515852 -0.12461315 1.9550111
0.72611332 -0.12461315 1.9550111
0.73524225 -0.12461315 1.9550111
0.74437112 -0.12461317 1.9550111
0.75532579 -0.12461315 1.9550111
0.76354188 -0.1255255 1.9550109
0.73586214 -0.11375783 1.9550111
0.74437112 -0.11366484 1.9550111
0.75532579 -0.11366484 1.9550111
0.76262897 -0.11366484 1.9550109
0.74386179 -0.10435497 1.9550111
0.75532579 -0.10454123 1.9550111
0.76575893 -0.094374947 1.9550111
0.77540946 -0.088118754 1.9550109
0.68942446 -0.16192454 1.9648401
0.62519801 -0.15458864 1.9648402
0.63437319 -0.15458862 1.9648402
0.64171338 -0.15825659 1.9648401
0.67382658 -0.15367165 1.9648401
0.68648839 -0.15605582 1.9648402
0.69431794 -0.15703395 1.9648402
0.55485475 -0.14480746 1.9648402
0.56464159 -0.14358482 1.9648402
0.57565188 -0.14358482 1.9648402
0.58644998 -0.14213909 1.9648401
0.59400225 -0.14480746 1.9648402
0.60593009 -0.14450179 1.9648401
0.61602277 -0.14541878 1.9648402
0.62519801 -0.14541878 1.9648401
0.63437319 -0.14541878 1.9648402
0.64905351 -0.1435848 1.9648401
0.6600638 -0.1435848 1.9648401
0.67107403 -0.14541878 1.9648401
0.68575442 -0.14358482 1.9648402
0.6949296 -0.1435848 1.9648401
0.54537368 -0.13349795 1.9648401
0.55546641 -0.13624892 1.9648402
0.56464159 -0.13624892 1.9648402
0.57495761 -0.13759419 1.9648402
0.58253711 -0.13700508 1.9648401
0.5958373 -0.13624893 1.9648402
0.6050126 -0.13624893 1.9648402
0.61602277 -0.13624892 1.9648402
0.62519801 -0.13624893 1.9648402
0.63437319 -0.13624892 1.9648402
0.64538348 -0.13624892 1.9648402
0.65455866 -0.13624892 1.9648402
0.6652019 -0.13478175 1.9648402
0.67621213 -0.13771608 1.9648402
0.68575436 -0.13624892 1.9648402
0.6949296 -0.13991685 1.9648401
0.70043474 -0.13991685 1.9648401
0.55546641 -0.12524508 1.9648402
0.56464165 -0.12524508 1.9648402
0.57559246 -0.12487602 1.9648401
0.58482707 -0.12341109 1.9648401
0.59446102 -0.12478659 1.9648401
0.60501254 -0.12524508 1.9648402
0.61602277 -0.12524508 1.9648402
0.62519801 -0.12524508 1.9648402
0.63437319 -0.12524508 1.9648402
0.64538354 -0.12524508 1.9648402
0.6652019 -0.12671225 1.9648402
0.67474413 -0.12524508 1.9648402
0.68575442 -0.12524508 1.9648402
0.70043474 -0.12157712 1.9648401
0.57565188 -0.11424123 1.9648402
0.58482707 -0.11424123 1.9648402
0.59400225 -0.11424123 1.9648402
0.60396403 -0.11476523 1.9648402
0.61602277 -0.11790918 1.9648402
0.62336296 -0.11790918 1.9648401
0.63559657 -0.11668652 1.9648402
0.6464321 -0.11476523 1.9648402
0.66740394 -0.11790918 1.9648401
0.67579281 -0.11476523 1.9648402
0.68575442 -0.11424123 1.9648402
0.6949296 -0.11240725 1.9648401
0.70043474 -0.1160752 1.9648401
0.59400231 -0.10507137 1.9648402
0.64721847 -0.10507137 1.9648401
0.6637339 -0.10323739 1.9648402
0.67547816 -0.10470457 1.9648402
0.68575442 -0.10507137 1.9648402
0.6949296 -0.10507137 1.9648401
0.70043474 -0.10323739 1.9648401
0.63483196 -0.095443003 1.9648401
0.64538342 -0.095901497 1.9648402
0.65455866 -0.095901504 1.9648402
0.6637339 -0.095901497 1.9648402
0.67474413 -0.095901497 1.9648402
0.68575442 -0.095901497 1.9648402
0.6949296 -0.095901504 1.9648402
0.70364606 -0.095443003 1.9648401
0.62519801 -0.08489766 1.9648402
0.63437319 -0.084897645 1.9648402
0.64577925 -0.084947743 1.9648402
0.65455866 -0.08489766 1.9648402
0.66373384 -0.084897652 1.9648402
0.67526847 -0.085945636 1.9648402
0.68575442 -0.084897652 1.9648402
0.6949296 -0.08489766 1.9648402
0.70410472 -0.084897652 1.9648402
0.64538342 -0.073893823 1.9648402
0.65455866 -0.073893823 1.9648402
0.6637339 -0.073893815 1.9648402
0.67474413 -0.073282495 1.9648402
0.68942446 -0.077561766 1.9648401
0.6949296 -0.077561766 1.9648401
0.70410484 -0.077561766 1.9648402
0.71144497 -0.077561766 1.9648401
0.65455866 -0.064723954 1.9648401
0.6637339 -0.064723961 1.9648402
0.67290902 -0.064723954 1.9648401
0.6637339 -0.059222035 1.9648402
0.5936085 -0.14253753 1.9756513
0.57884669 -0.13331677 1.9756513
0.58696574 -0.13479209 1.9756511
0.5936085 -0.13516092 1.9756513
0.50872809 -0.12594017 1.9756513
0.51610899 -0.12409602 1.9756513
0.52472007 -0.1234813 1.9756513
0.5862276 -0.12962848 1.9756513
0.5936085 -0.12962848 1.9756513
0.51979941 -0.11671941 1.9756513
0.52533507 -0.11487527 1.9756511
0.5308708 -0.11487526 1.9756513
0.54194212 -0.11303111 1.9756513
0.55670398 -0.11118697 1.9756513
0.52533507 -0.10381036 1.9756511
0.5308708 -0.10565451 1.9756513
0.54194212 -0.10565451 1.9756513
