# .PCD v0.7 - Point Cloud Data file format
VERSION 0.7
FIELDS x y z
SIZE 4 4 4
TYPE F F F
COUNT 1 1 1
WIDTH 691
HEIGHT 1
VIEWPOINT 0 0 0 1 0 0 0
POINTS 691
DATA ascii
0.74450076 0.075355388 1.5877706
0.73281169 0.084639028 1.5877706
0.71937108 0.096579283 1.5877706
0.72385132 0.096579283 1.5860447
0.71649349 0.10149544 1.5877706
0.72307771 0.1041557 1.5831684
0.82548499 0.11748488 1.5877707
0.73729193 0.068221174 1.5946734
0.74027872 0.068221174 1.5946734
0.75342226 0.067925118 1.5946734
0.73729199 0.074191302 1.5946735
0.74460578 0.074856497 1.5946734
0.75490922 0.075355396 1.5946734
0.76323599 0.07594981 1.5946733
0.77761376 0.077176362 1.5946734
0.73629636 0.081156455 1.5946735
0.74319291 0.08268477 1.5946733
0.75565267 0.083528697 1.5946734
0.76234376 0.084271722 1.5946734
0.77761376 0.08016143 1.5946734
0.71538872 0.097076796 1.5946735
0.72609144 0.092847958 1.5946734
0.82855654 0.1080223 1.5946734
0.81644225 0.11747473 1.5946734
0.82684219 0.11267006 1.5946735
0.83157116 0.11103512 1.5946734
0.72756815 0.0085991174 1.6084778
0.72631997 0.014879966 1.6084778
0.73314899 0.01532407 1.6084778
0.74414837 0.017637588 1.608478
0.7074942 0.028043982 1.6084778
0.71623343 0.026784172 1.6079028
0.72493219 0.024994938 1.6056021
0.73476475 0.024637144 1.6065954
0.74399137 0.026045306 1.6061773
0.75429308 0.025623156 1.6084777
0.7062943 0.036138635 1.6084778
0.71545452 0.035488706 1.6057172
0.72497129 0.035385467 1.6015757
0.73444057 0.035491455 1.6015757
0.74499124 0.035539031 1.6044517
0.75549042 0.035539031 1.6084777
0.76550174 0.035651099 1.6084778
0.77127951 0.034208119 1.6084778
0.70535153 0.044961382 1.6084778
0.71401155 0.044379152 1.6029563
0.72534466 0.044340663 1.6015757
0.73393172 0.044713795 1.6015757
0.74460357 0.044153728 1.6015757
0.75549042 0.044533085 1.6046433
0.76363266 0.044961382 1.6045338
0.77127951 0.04324659 1.6084778
0.70449442 0.055026155 1.608478
0.71427739 0.05457883 1.6042601
0.72489518 0.054873034 1.6033014
0.73492873 0.05544981 1.6033013
0.74437433 0.055106193 1.6019818
0.75535417 0.05490144 1.6029562
0.76416063 0.054570574 1.605968
0.77408898 0.05892358 1.6057171
0.69738191 0.066180572 1.6084778
0.70423943 0.0652503 1.6084778
0.71499366 0.065519214 1.6061772
0.72549284 0.065519214 1.6084777
0.73500115 0.065196373 1.6053405
0.7451663 0.064964734 1.6015757
0.75478607 0.064383231 1.6015757
0.76417315 0.065236107 1.6015757
0.77541113 0.065674871 1.6029562
0.78379107 0.066873439 1.6033013
0.70449442 0.074513279 1.6084777
0.71499366 0.074513279 1.608478
0.72549284 0.074513279 1.6084777
0.73307866 0.074367292 1.6015757
0.77483386 0.073230624 1.6015757
0.78668803 0.075112879 1.6057169
0.79148763 0.076012284 1.6084778
0.7056492 0.083644785 1.6084777
0.71475804 0.085296862 1.6084781
0.72549289 0.085006341 1.605602
0.73249221 0.085006341 1.6015757
0.74799103 0.086505346 1.6015757
0.75534832 0.086318448 1.6050267
0.7749638 0.084677719 1.6015757
0.78648806 0.085506 1.6031096
0.79425675 0.086218059 1.6084777
0.80198681 0.088004358 1.6084778
0.81248599 0.08950337 1.6084778
0.71379155 0.094376899 1.6047131
0.79748714 0.096998416 1.6084778
0.80498666 0.095499411 1.6073277
0.8148858 0.09729822 1.6043366
0.71492261 0.10492595 1.602726
0.81434005 0.10489295 1.60552
0.82148528 0.10449345 1.6050267
0.70697403 0.11219855 1.608478
0.71098793 0.11103512 1.6084778
0.81618929 0.11371022 1.6050268
0.82148528 0.11198851 1.6015757
0.71555883 0.0086360909 1.6163653
0.72312772 0.0086360909 1.6163653
0.73359728 0.0085991174 1.6163653
0.71439165 0.01501385 1.6163653
0.721048 0.013628811 1.6163653
0.73811918 0.013118353 1.6163653
0.74344093 0.013130835 1.6163653
0.75340313 0.016704833 1.6163653
0.70696855 0.026173923 1.6163653
0.71400255 0.022156825 1.6163653
0.72003168 0.020650413 1.6163653
0.75829542 0.02268856 1.6163653
0.76525038 0.026676062 1.6163653
0.70409757 0.035284132 1.6163653
0.77328932 0.037723079 1.6163653
0.69892961 0.047765829 1.6163653
0.70315009 0.044150438 1.6163653
0.77580142 0.044753008 1.6163653
0.78032327 0.047765829 1.6163653
0.69891626 0.05332768 1.6163653
0.70194244 0.055648018 1.6163653
0.7761029 0.053188909 1.6163653
0.78183055 0.053791475 1.6163653
0.69547623 0.0650573 1.6163653
0.70193487 0.060074322 1.6163653
0.6979152 0.073982134 1.6163653
0.70194423 0.074881241 1.6163653
0.69892967 0.083919704 1.6163653
0.70345157 0.08693254 1.6163653
0.70625234 0.094420694 1.6163653
0.71098793 0.097477421 1.6163653
0.79625756 0.095540605 1.6163653
0.80142534 0.092958182 1.6163653
0.70797336 0.1080223 1.6163653
0.71175957 0.105232 1.6163653
0.79765713 0.10425627 1.6163653
0.80443996 0.10500947 1.6163653
0.81046909 0.10199665 1.6163653
0.70295036 0.11420709 1.6163653
0.8055886 0.11119428 1.6163653
0.81395394 0.11151255 1.6163653
0.71101749 0.0086360909 1.6232665
0.70798999 0.017713426 1.6232665
0.71101749 0.014687648 1.6232666
0.69889134 0.0288505 1.6232666
0.70496243 0.025277872 1.6232663
0.76248574 0.020739205 1.6232665
0.69625831 0.035489868 1.6232663
0.70193493 0.035868093 1.6232666
0.69716865 0.045407023 1.6232665
0.70193487 0.043432541 1.6232665
0.69585538 0.054115284 1.6232665
0.69405103 0.063756697 1.6232665
0.69527429 0.075808369 1.6232665
0.69889534 0.083611071 1.6232665
0.70556158 0.097156465 1.6232665
0.70799005 0.10546099 1.6232666
0.71101749 0.10243522 1.6232665
0.70837462 0.11711591 1.6232665
0.69952863 0.0087575773 1.6380532
0.70605546 0.0074365367 1.6369265
0.71122551 0.0086941924 1.6341102
0.6869874 0.017875934 1.6380532
0.69462574 0.014822397 1.6327958
0.70541346 0.014789986 1.6301672
0.71102113 0.013231164 1.6301671
0.68767494 0.025473304 1.6360817
0.69441324 0.024955185 1.6333216
0.70303458 0.022383656 1.6301672
0.68588358 0.035759885 1.6363635
0.6917904 0.035725869 1.6331244
0.67803776 0.047111861 1.6380532
0.68466383 0.045533948 1.6360818
0.69286525 0.04433037 1.6301672
0.67803776 0.051714376 1.6380532
0.68534106 0.054112237 1.6359504
0.69237304 0.054851092 1.6327958
0.68568021 0.064117648 1.6360818
0.6914103 0.065047696 1.6311529
0.68724811 0.073192768 1.6380533
0.6917749 0.075671874 1.6352369
0.69536525 0.084958591 1.6356269
0.69700003 0.093513787 1.6364759
0.70326447 0.095769465 1.6317444
0.69920868 0.10032145 1.6380532
0.70540506 0.10505676 1.6338071
0.70693803 0.11496956 1.6321387
0.71781963 0.12331883 1.6301671
0.68724811 0.017962605 1.6459386
0.6850552 0.023660956 1.6459388
0.66882735 0.037906833 1.6459386
0.67621863 0.037293207 1.6459388
0.68233597 0.032690652 1.6459388
0.66882735 0.042509347 1.6459386
0.67532188 0.046118792 1.6459388
0.67613816 0.054687604 1.6459388
0.68110788 0.057851061 1.6459386
0.67741364 0.063095719 1.6459388
0.67803776 0.071658596 1.6459386
0.68347412 0.07527554 1.6459388
0.68648052 0.08469905 1.6459386
0.69108582 0.086233221 1.6459386
0.68724811 0.093136996 1.6459386
0.69251126 0.095109507 1.6459388
0.68724811 0.10694454 1.6459386
0.69608426 0.10329036 1.6459388
0.70259881 0.10541037 1.6459386
0.68724811 0.11001288 1.6459386
0.69031829 0.11001288 1.6459386
0.70565075 0.11379556 1.6459388
0.71162754 0.12331883 1.6459386
0.67715138 0.024223978 1.6542177
0.68213362 0.024817297 1.652838
0.67769408 0.031968106 1.6528379
0.68078363 0.03042746 1.6528379
0.67148024 0.049291514 1.6597368
0.67779362 0.057851598 1.6574372
0.67639524 0.064832002 1.6538235
0.68121362 0.064066038 1.6562873
0.6776967 0.072278097 1.6562874
0.68177676 0.077829152 1.6551375
0.68564594 0.085203789 1.6557946
0.68756133 0.094694428 1.6555976
0.69014966 0.098152168 1.6528379
0.68995517 0.10475333 1.6597369
0.69384938 0.10493102 1.652838
0.6950562 0.11200183 1.6555976
0.70506984 0.11486567 1.6567801
0.70867109 0.12362126 1.6597368
0.66842645 0.058897823 1.6676208
0.67311496 0.058897823 1.6676208
0.67779756 0.066395096 1.6676209
0.68149811 0.069280505 1.6676208
0.67775273 0.074333146 1.6676208
0.68081284 0.077273026 1.6676208
0.67770201 0.080382079 1.6676208
0.68392372 0.085045666 1.6676209
0.68703461 0.094372839 1.6676208
0.69022584 0.099272221 1.6676208
0.69014549 0.1037 1.6676208
0.70266235 0.11684122 1.6676209
0.72379261 0.11962876 1.6676208
0.70569986 0.12302059 1.6676209
0.71192157 0.12390887 1.6676208
0.72704053 0.12287476 1.6676208
0.66842645 0.062021688 1.6755042
0.67786789 0.073297255 1.6755042
0.68104434 0.078192942 1.6755042
0.67780352 0.087012582 1.6755042
0.68158895 0.084669553 1.6755043
0.70785213 0.086374842 1.6755042
0.68563223 0.093707889 1.6755044
0.69065285 0.091845185 1.6755042
0.6913482 0.10575575 1.6755042
0.70280898 0.12137506 1.6755042
0.73361927 0.1299568 1.6755042
0.73688197 0.1332176 1.6755042
0.67791754 0.075223453 1.683387
0.68123144 0.075822458 1.6833872
0.70457274 0.084736109 1.683387
0.68520308 0.096840963 1.6833872
0.68729681 0.10311829 1.683387
0.69043732 0.10468763 1.683387
0.70069546 0.10239659 1.683387
0.71729684 0.11313675 1.683387
0.7205447 0.11638276 1.683387
0.68426591 0.079480827 1.6912694
0.7039119 0.10882567 1.6912694
0.68268198 0.068133846 1.7070322
0.69406593 0.097105153 1.7035842
0.70785213 0.09129104 1.7001363
0.70457274 0.088013574 1.7149129
0.69746017 0.094794825 1.7149129
0.7205447 0.11962876 1.7149129
0.72704053 0.12612076 1.7149129
0.70457274 0.09129104 1.7237781
0.70069546 0.10561112 1.7237781
0.69283545 0.066371053 1.7316576
0.68806577 0.07580772 1.7316576
0.6920746 0.073534995 1.7316576
0.70129341 0.084736109 1.7316576
0.70159072 0.10461134 1.7316576
0.72379261 0.12287476 1.7316576
0.69826514 0.058813773 1.7405213
0.70156121 0.058813773 1.7405213
0.69826514 0.062107895 1.7405213
0.70156121 0.062107895 1.7405213
0.69145525 0.074903719 1.7431476
0.69460487 0.082890391 1.7444606
0.70129341 0.088013574 1.7405213
0.70457274 0.096207231 1.7483997
0.70214003 0.10664475 1.7405213
0.70425493 0.11039196 1.7483997
0.7156744 0.11365277 1.7483997
0.72056842 0.11691357 1.7483997
0.73393124 0.13257876 1.7405213
0.69496912 0.065402016 1.7572621
0.69167316 0.075284377 1.7572621
0.69488823 0.085566662 1.7572621
0.69826514 0.091754965 1.7572621
0.70257062 0.092698365 1.7572621
0.7045728 0.1044009 1.7572621
0.70457274 0.11095582 1.7572621
0.7144109 0.11532578 1.7572621
0.72096962 0.11751075 1.7572621
0.72588873 0.12242694 1.7572621
0.74111366 0.13787264 1.7572621
0.74111366 0.14116675 1.7572621
0.69468117 0.058929421 1.766124
0.69220585 0.066354148 1.766124
0.69108415 0.075580433 1.7661241
0.6916731 0.086813793 1.766124
0.69478148 0.092977606 1.7661241
0.7033962 0.096396327 1.7661241
0.70485723 0.10493146 1.7661241
0.70650524 0.11316674 1.766124
0.71392137 0.11728439 1.766124
0.71804136 0.12140204 1.766124
0.72463357 0.12414714 1.766124
0.73287356 0.12799028 1.766124
0.73493075 0.13475278 1.766124
0.73781765 0.1428138 1.766124
0.74111366 0.14446087 1.766124
0.69451308 0.057027496 1.773016
0.69113582 0.065774992 1.773016
0.68777519 0.07723397 1.773016
0.69123906 0.072637357 1.773016
0.69108415 0.085501656 1.773016
0.69439316 0.096249655 1.773016
0.70266569 0.098729953 1.773016
0.69721341 0.10552373 1.773016
0.70266569 0.10534411 1.773016
0.70432019 0.11306062 1.773016
0.71093816 0.1185724 1.773016
0.71596956 0.1228597 1.773016
0.72334695 0.12766685 1.773016
0.72582877 0.13510777 1.773016
0.73161948 0.13593455 1.773016
0.726493 0.14306775 1.773016
0.73367918 0.14371602 1.7730161
0.68791342 0.059342436 1.7818767
0.69123906 0.059342436 1.7818767
0.70824385 0.056580141 1.7818767
0.71328235 0.056580141 1.7818767
0.68791342 0.065989904 1.7818768
0.69123906 0.06432803 1.7818767
0.68791342 0.072637357 1.7818767
0.69136059 0.07801193 1.7818767
0.69123906 0.085932277 1.7818768
0.69577098 0.096223854 1.7818768
0.70535082 0.11497077 1.7818768
0.71119308 0.11916957 1.7818767
0.71661276 0.12673397 1.7818768
0.72117007 0.12914076 1.7818767
0.7180993 0.13646868 1.7818768
0.72277069 0.1360925 1.7818767
0.71809924 0.14314944 1.7818767
0.72400016 0.14419675 1.7818768
0.73648202 0.14983021 1.7818767
0.69643068 0.054765426 1.795166
0.70481575 0.053091072 1.795166
0.69487941 0.066981949 1.7995957
0.69144887 0.073365353 1.7995957
0.69416469 0.084276795 1.796052
0.69618338 0.093693167 1.7995957
0.69816685 0.10022168 1.7995957
0.70152581 0.10525723 1.795166
0.70410585 0.1147752 1.7995957
0.70831299 0.12402788 1.7995957
0.713651 0.12482014 1.7907363
0.71501905 0.13401519 1.797627
0.71832085 0.14050616 1.7995957
0.73811358 0.042319391 1.8084542
0.7432549 0.044032149 1.8084542
0.69825506 0.053487163 1.8084542
0.70669425 0.050113466 1.8084542
0.72783107 0.05430869 1.8084542
0.69487941 0.063608259 1.8084542
0.69276822 0.073857993 1.8084543
0.69150376 0.083850436 1.8084543
0.69285405 0.094646268 1.8084542
0.69622964 0.10274314 1.8084542
0.70163077 0.10577946 1.8084542
0.69825506 0.11084001 1.8084542
0.70419663 0.11463755 1.8084543
0.70792431 0.12585662 1.8084542
0.70725691 0.13220677 1.8084543
0.71175772 0.13445587 1.8084542
0.7432549 0.040606633 1.8182961
0.70378244 0.050388362 1.8182961
0.71566206 0.050388362 1.8182961
0.70212168 0.06086234 1.8182961
0.69529998 0.077906631 1.8182961
0.69529998 0.084724352 1.8182962
0.69303524 0.094636083 1.8182962
0.69699407 0.10635971 1.8182961
0.69869119 0.11144801 1.8182961
0.70208532 0.1165363 1.8182961
0.70665187 0.12315902 1.8182962
0.73771977 0.037248075 1.8271532
0.73502886 0.045402355 1.8271532
0.70212168 0.055749059 1.8271532
0.72783107 0.050883174 1.8271532
0.73297232 0.052595932 1.8271532
0.70212477 0.066297986 1.8271532
0.69529998 0.074497774 1.8271532
0.6952697 0.086851075 1.8271532
0.6952697 0.091989338 1.8271532
0.69529998 0.10176864 1.8271532
0.69871086 0.11369964 1.8271532
0.70212168 0.11710851 1.8271532
0.70897979 0.12624449 1.8271532
0.73176318 0.037381988 1.8360095
0.74487847 0.033986598 1.8360095
0.71368408 0.047543123 1.8360095
0.72684449 0.046401288 1.8360097
0.73176318 0.040826008 1.8360095
0.7432549 0.047457661 1.8360095
0.70555228 0.050883174 1.8360095
0.73639983 0.050883174 1.8360095
0.70212477 0.061159715 1.8360095
0.69766426 0.074996583 1.8360095
0.6952697 0.081712797 1.8360095
0.6952697 0.097127616 1.8360095
0.69698346 0.1056914 1.8360095
0.69869721 0.11425518 1.8360095
0.70212477 0.11939345 1.8360095
0.70555228 0.12281897 1.8360095
0.73749357 0.034284461 1.845849
0.74073541 0.034193277 1.845849
0.75191557 0.030969135 1.845849
0.71694601 0.044398483 1.845849
0.72412741 0.042755108 1.845849
0.73031962 0.041133136 1.845849
0.70705593 0.054684561 1.845849
0.70247191 0.064934149 1.845849
0.69894379 0.079090886 1.845849
0.70240647 0.072169535 1.845849
0.69782251 0.085868701 1.845849
0.69557989 0.095930338 1.845849
0.69672859 0.1062624 1.845849
0.69897121 0.11236169 1.845849
0.70240647 0.11715832 1.845849
0.7059058 0.1236318 1.845849
0.71281004 0.13037054 1.845849
0.7235688 0.037763648 1.8547039
0.73227179 0.037763644 1.8547039
0.71671033 0.044807471 1.8547039
0.70688623 0.055878021 1.8547039
0.70365852 0.065358326 1.8547039
0.69894379 0.07563021 1.8547039
0.70268148 0.072555467 1.8547039
0.70268148 0.11778484 1.8547039
0.70428455 0.1226811 1.8547039
0.7127946 0.13100103 1.8547039
0.72506684 0.035687432 1.8645419
0.73311555 0.03440604 1.8645419
0.71691835 0.044959892 1.8645419
0.72033221 0.041659642 1.8645419
0.70804077 0.053557411 1.8645419
0.70455033 0.067511156 1.8645419
0.69920027 0.079513833 1.8645419
0.70291942 0.076439083 1.8645419
0.69920033 0.086472198 1.8645419
0.69920027 0.095170155 1.8645419
0.69920033 0.10386811 1.8645419
0.69920027 0.11082647 1.8645419
0.70291942 0.1166625 1.8645419
0.70641917 0.12190904 1.8645419
0.71312511 0.12822239 1.8645419
0.76300943 0.027747616 1.8743789
0.72209036 0.036388125 1.8743789
0.73791414 0.031116609 1.8743789
0.74404478 0.031006003 1.8743789
0.75541532 0.030969135 1.8743789
0.71599662 0.046990626 1.8743789
0.705199 0.056709655 1.874379
0.70334691 0.065580927 1.8743792
0.69941968 0.076439083 1.8743789
0.70291942 0.072941393 1.8743789
0.69766986 0.085183308 1.8743789
0.69766986 0.093927532 1.874379
0.69825315 0.10208879 1.8743789
0.70275021 0.10843218 1.8743789
0.70275021 0.1137037 1.8743789
0.70634288 0.12394814 1.8743789
0.713359 0.12921134 1.8743789
0.71691835 0.13240211 1.8743789
0.7256068 0.13654694 1.8743789
0.74242771 0.13870408 1.8743789
0.74533486 0.027747616 1.8832315
0.75417215 0.027747616 1.8832315
0.72424531 0.036680177 1.8832315
0.73344105 0.031225845 1.8832315
0.7080248 0.04868833 1.8832315
0.71705556 0.041879017 1.8832315
0.72059047 0.041879017 1.8832315
0.70450842 0.053959846 1.8832315
0.69923383 0.069774389 1.8832315
0.70291597 0.064842552 1.8832315
0.69839156 0.075142391 1.8832315
0.69627494 0.083518915 1.8832315
0.69576895 0.093867026 1.8832315
0.69839156 0.10505596 1.8832315
0.69923383 0.11194652 1.8832315
0.70283306 0.11752205 1.8832315
0.70750016 0.12621891 1.8832315
0.71693563 0.13338286 1.8832315
0.72033221 0.13654694 1.8832315
0.74494696 0.15060431 1.8832315
0.7559396 0.15493025 1.8832315
0.7625289 0.16114734 1.8832315
0.76956171 0.17520472 1.8832315
0.77307808 0.17520472 1.8832315
0.73728979 0.027844517 1.8930671
0.74746251 0.024341609 1.893067
0.75712818 0.02519311 1.893067
0.76300943 0.024214765 1.893067
0.72447586 0.036862541 1.893067
0.73147207 0.031444326 1.893067
0.71441567 0.044939481 1.893067
0.70654905 0.056212187 1.8930671
0.69938105 0.066608973 1.893067
0.69584614 0.074557886 1.893067
0.69231123 0.084273219 1.8930671
0.69348955 0.094871774 1.8930671
0.69702446 0.10547033 1.8930671
0.69938105 0.11430246 1.893067
0.70291597 0.11960173 1.893067
0.70659804 0.1237796 1.893067
0.71015149 0.12733096 1.893067
0.71548164 0.132658 1.893067
0.72258848 0.13798504 1.893067
0.743909 0.14686343 1.893067
0.74497342 0.15428752 1.8930671
0.75539154 0.15808855 1.893067
0.76300943 0.15846309 1.893067
0.74923921 0.16994724 1.893067
0.75645202 0.16587564 1.893067
0.76442337 0.16623537 1.893067
0.7729072 0.16764851 1.893067
0.78477347 0.16994724 1.893067
0.74746251 0.17527427 1.893067
0.75723445 0.17438644 1.893067
0.76411486 0.17393439 1.893067
0.77474737 0.1739344 1.893067
0.78068393 0.1725945 1.893067
0.7598995 0.18060131 1.893067
0.76345289 0.18060131 1.893067
0.77411318 0.18060131 1.893067
0.73871732 0.024405032 1.9029018
0.7457642 0.021705177 1.9029018
0.75634611 0.020790253 1.9029019
0.76544213 0.022620101 1.9029018
0.71742409 0.038747907 1.9029018
0.72278202 0.036962975 1.9029018
0.73171186 0.031608183 1.9029018
0.70659804 0.049201109 1.9029018
0.71385211 0.045887634 1.9029018
0.70576477 0.055558056 1.9029018
0.69771451 0.066957891 1.9029018
0.70309049 0.063571744 1.9029018
0.69593781 0.073172763 1.9029018
0.69240236 0.084935412 1.9029019
0.6931023 0.095464446 1.9029019
0.69683981 0.10526848 1.9029018
0.6994912 0.11312553 1.9029018
0.70304465 0.12022825 1.9029018
0.7156381 0.13334927 1.9029018
0.72791862 0.14153638 1.9029018
0.73700988 0.14476696 1.9029018
0.7423538 0.14476696 1.9029018
0.73885572 0.15298353 1.9029018
0.74469823 0.1562767 1.9029019
0.74787533 0.16459402 1.9029018
0.75456929 0.16639589 1.9029018
0.74342144 0.17379379 1.9029019
0.75456929 0.17704995 1.9029018
0.76700634 0.17704995 1.9029018
0.77055973 0.17704995 1.9029018
0.74957156 0.18154243 1.9029018
0.75409406 0.18091503 1.9029019
0.76700634 0.18060131 1.9029018
0.77055973 0.18060131 1.9029018
0.73885572 0.017328728 1.9127355
0.74558097 0.015300015 1.9127353
0.75492948 0.015543797 1.9127355
0.76314491 0.015900785 1.9127353
0.71767342 0.028118262 1.9127355
0.7255885 0.024978437 1.9127353
0.73426324 0.023958478 1.9127353
0.74242771 0.020898592 1.9127355
0.7753998 0.021017764 1.9127355
0.71449625 0.035751157 1.9127353
0.72367501 0.032500647 1.9127355
0.70536292 0.047371987 1.9127353
0.71147084 0.043507725 1.9127355
0.69956434 0.054812293 1.9127355
0.70313632 0.054812293 1.9127355
0.69655937 0.06378597 1.9127353
0.70313632 0.060167085 1.9127355
0.69367051 0.074520692 1.9127353
0.69277662 0.085641727 1.9127355
0.6888485 0.094080791 1.9127355
0.69242048 0.097650647 1.9127355
0.69340253 0.10403967 1.9127355
0.69813555 0.11300106 1.9127353
0.70313632 0.1172849 1.9127355
0.69956434 0.12085477 1.9127355
0.70536703 0.12528458 1.9127353
0.71028018 0.12799448 1.9127355
0.70670825 0.13156435 1.9127355
0.71230024 0.13462704 1.9127355
0.72125554 0.13909955 1.9127355
0.72731566 0.14281482 1.9127355
0.735484 0.14731097 1.9127355
0.73647445 0.15536344 1.9127355
0.7391662 0.16415986 1.9127353
0.74242771 0.16369312 1.9127355
0.73926973 0.17267904 1.9127355
0.74258804 0.17465134 1.9127355
0.75564206 0.1861679 1.9127355
0.76462287 0.1861679 1.9127355
0.77360368 0.1861679 1.9127355
0.7570321 -0.002928088 1.9235516
0.74486518 0.0048617749 1.9235516
0.75449359 0.0048644096 1.9235516
0.76462287 0.0048617749 1.9235516
0.72636831 0.016272636 1.9235516
0.73639756 0.014863101 1.9235517
0.74486518 0.010247105 1.9235516
0.75384593 0.010247106 1.9235516
0.76462287 0.010247106 1.9235516
0.77396291 0.01311928 1.9235516
0.78646505 0.015093952 1.9235516
0.71522856 0.025505539 1.9235516
0.72331131 0.022812873 1.9235516
0.78481299 0.021126105 1.9235516
0.70714587 0.037173755 1.9235516
0.71253431 0.033583537 1.9235516
0.69636893 0.049739525 1.9235516
0.70534968 0.044354197 1.9235516
0.68918431 0.056919966 1.9235516
0.69636893 0.055124857 1.9235516
0.689161 0.064954326 1.9235516
0.69367468 0.063202851 1.9235516
0.68797719 0.074932307 1.9235516
0.69277662 0.073075958 1.9235516
0.68797719 0.085718393 1.9235516
0.68918431 0.094617277 1.9235516
0.68918437 0.10359284 1.9235516
0.69277662 0.10538794 1.9235516
0.6957702 0.11436349 1.9235516
0.69906318 0.12423659 1.9235516
0.70355356 0.12692925 1.9235516
0.70570898 0.13518678 1.9235516
0.71433055 0.13949504 1.9235516
0.71195316 0.1433311 1.9235516
0.72518015 0.14525838 1.9235516
0.73237401 0.1470535 1.9235516
0.72884512 0.15104026 1.9235516
0.7354728 0.15379356 1.9235517
0.73967761 0.16547516 1.9235516
0.73947668 0.17898744 1.9235516
0.74306899 0.17898744 1.9235516
0.75025362 0.18257767 1.9235516
0.77899212 0.1861679 1.9235516
0.7739805 0.19073623 1.9235516
0.78430825 0.19399093 1.9235516
0.68912601 0.057213366 1.9333835
0.6927368 0.05360464 1.9333835
0.68912601 0.060822096 1.9333835
0.68809319 0.075533234 1.9333835
0.68744862 0.084521621 1.9333835
0.68773288 0.094123565 1.9333836
0.68768167 0.10340507 1.9333836
0.6939404 0.114953 1.9333835
0.69875491 0.12577918 1.9333835
0.6999585 0.13299662 1.9333835
0.70356929 0.13480097 1.9333835
0.7071802 0.14382279 1.9333835
0.71440184 0.14743152 1.9333835
0.72418398 0.14650583 1.9333835
0.70718014 0.15104026 1.9333835
0.71259642 0.15104026 1.9333835
0.73477215 0.15733589 1.9333835
0.73606676 0.16367079 1.9333835
0.73967761 0.17449698 1.9333835
0.74021894 0.17003769 1.9333835
0.75837493 0.18818311 1.9333835
0.76638502 0.19109488 1.9333835
0.78197777 0.19544128 1.9333835
