# .PCD v0.7 - Point Cloud Data file format
VERSION 0.7
FIELDS x y z
SIZE 4 4 4
TYPE F F F
COUNT 1 1 1
WIDTH 437
HEIGHT 1
VIEWPOINT 0 0 0 1 0 0 0
POINTS 437
DATA ascii
0.54932308 -0.063239016 1.9756513
0.5530135 -0.063239016 1.9756513
0.56593013 -0.063239016 1.9756513
0.57146579 -0.063239016 1.9756513
0.53640646 -0.054018255 1.9756513
0.54615986 -0.054808609 1.9756511
0.55448973 -0.055124748 1.9756511
0.56452966 -0.055903547 1.9756511
0.5756098 -0.055903543 1.9756511
0.52348989 -0.041109193 1.9756513
0.53640646 -0.044797502 1.9756511
0.5456326 -0.044797499 1.975651
0.5548588 -0.044797495 1.9756511
0.5637964 -0.044921126 1.9756511
0.57858872 -0.044921126 1.9756511
0.53456128 -0.033732589 1.975651
0.5456326 -0.033732589 1.975651
0.5548588 -0.033732589 1.9756511
0.56327409 -0.033787861 1.9756511
0.57643145 -0.034368791 1.9756511
0.58548951 -0.031519607 1.9756511
0.54662967 -0.024556927 1.9756511
0.55715817 -0.024610754 1.9756513
0.5653429 -0.02464712 1.9756513
0.57567668 -0.024613297 1.975651
0.5862276 -0.024511833 1.9756511
0.59545374 -0.026355984 1.9756513
0.5653429 -0.015375471 1.9756511
0.57461995 -0.01537547 1.975651
0.58518112 -0.015312172 1.975651
0.58404797 -0.0047593028 1.9756511
0.57276452 -0.052462071 1.9864615
0.57276452 -0.045044757 1.9864615
0.57461995 -0.033177041 1.9864615
0.53194547 -0.02279279 1.9864615
0.39464504 -0.015375469 1.9864615
0.40392208 -0.015375469 1.9864614
0.4224762 -0.011666808 1.9864615
0.53194547 -0.015375469 1.9864615
0.54493332 -0.019084129 1.9864615
0.41505453 -0.0023951575 1.9864615
0.42433164 -0.0042494875 1.9864615
0.52637923 -0.004249488 1.9864615
0.5338009 -0.0042494875 1.9864614
0.54493332 -0.0042494875 1.9864614
0.55532372 -0.0057329512 1.9864615
0.57554764 -0.0033223224 1.9864615
0.58204156 -0.0023951575 1.9864615
0.42618704 0.005022163 1.9864615
0.43546408 0.0068764933 1.9864615
0.44103029 0.0068764933 1.9864615
0.51895761 0.0068764933 1.9864615
0.52452379 0.005022163 1.9864615
0.53380096 0.005022163 1.9864615
0.54307795 0.005022163 1.9864615
0.43546408 0.014293814 1.9864615
0.44421104 0.015353431 1.9864616
0.45494586 0.017075308 1.9864615
0.46329525 0.018002473 1.9864615
0.47566468 0.016766254 1.9864615
0.48630238 0.016519008 1.9864615
0.49520835 0.015035545 1.9864615
0.50411433 0.014293813 1.9864614
0.51524675 0.014293813 1.9864614
0.52452385 0.014293812 1.9864615
0.53486109 0.013764005 1.9864616
0.54387313 0.014823621 1.9864616
0.45573971 0.02507426 1.9864614
0.46433413 0.026682666 1.9864615
0.47521704 0.025903363 1.9864615
0.48542947 0.024976198 1.9864615
0.49519888 0.026015216 1.9864616
0.50411433 0.025419796 1.9864614
0.51524669 0.025419796 1.9864614
0.52452385 0.025419794 1.9864615
0.53503788 0.026037907 1.9864615
0.54387313 0.025949607 1.9864616
0.55235499 0.029128455 1.9864615
0.48542702 0.033949614 1.9864615
0.49523342 0.03485183 1.9864615
0.50411433 0.034691449 1.9864615
0.51524675 0.034691449 1.9864615
0.52452385 0.034691446 1.9864615
0.53380084 0.034691449 1.9864615
0.54493332 0.034691449 1.9864615
0.55532372 0.035062313 1.9864615
0.56596136 0.035309557 1.9864615
0.57387775 0.034320582 1.9864615
0.58470064 0.035182673 1.9864615
0.4855603 0.044737134 1.9864616
0.49568781 0.04420441 1.9864614
0.50541723 0.044699747 1.9864616
0.51542896 0.043752026 1.9864615
0.52452385 0.043963101 1.9864615
0.5341242 0.043992177 1.9864614
0.54493332 0.043963101 1.9864614
0.55674398 0.044048503 1.9864615
0.56472063 0.043317892 1.9864615
0.57299489 0.043509256 1.9864615
0.58659023 0.042910043 1.9864614
0.59487438 0.044050328 1.9864615
0.60016114 0.047933429 1.9864615
0.49568781 0.051662445 1.9864615
0.50502896 0.055235181 1.9864615
0.51373982 0.054663293 1.9864615
0.52452385 0.051380415 1.9864615
0.535456 0.052378085 1.9864615
0.54526341 0.055124942 1.9864614
0.55560195 0.054625496 1.9864615
0.56472445 0.053852856 1.9864615
0.57331246 0.054680143 1.9864616
0.58629316 0.055779446 1.9864615
0.5929364 0.051521428 1.9864615
0.54701185 0.064800218 1.9864615
0.55560201 0.066678643 1.9864615
0.57302421 0.065546028 1.9864615
0.58648014 0.064092509 1.9864615
0.59269875 0.064714007 1.9864615
0.55648434 0.073935501 1.9864615
0.56484419 0.075942487 1.9864615
0.57434154 0.071969956 1.9864615
0.58909148 0.074862674 1.9864615
0.59285724 0.073895037 1.9864615
0.56451172 0.081197999 1.9864615
0.5892154 0.084990978 1.9864615
0.59465837 0.085500099 1.9864615
0.60059565 0.088467024 1.9864615
0.5892154 0.092428662 1.9864615
0.59469652 0.095959529 1.9864616
0.60306954 0.097120568 1.9864615
0.5966574 0.10358518 1.9864615
0.60430658 0.10330167 1.9864615
0.61172813 0.10701033 1.9864615
0.60801733 0.11628198 1.9864615
0.61265582 0.11535481 1.9864615
0.61256248 0.12387159 1.9864615
0.53299975 0.016236782 1.9972705
0.44531673 0.029288342 1.9972705
0.45091352 0.029288342 1.9972705
0.53424352 0.024316322 1.9972705
0.40987042 0.036746375 1.9972705
0.44531673 0.034881867 1.9972705
0.45464474 0.034881871 1.9972705
0.46583828 0.034881871 1.9972705
0.47516623 0.034881867 1.9972705
0.48262861 0.036746375 1.9972705
0.42666078 0.040475395 1.9972705
0.43598875 0.044204414 1.9972703
0.44531676 0.044204414 1.9972705
0.4541783 0.043738283 1.9972705
0.46630463 0.043738287 1.9972705
0.47423345 0.045136668 1.9972705
0.57590842 0.047933429 1.9972705
0.5833708 0.047933429 1.9972705
0.43661064 0.054148458 1.9972705
0.44531673 0.053526953 1.9972705
0.45091352 0.053526953 1.9972705
0.46956944 0.053526953 1.9972705
0.47516623 0.053526953 1.9972705
0.48496062 0.054925334 1.9972705
0.49568781 0.057255976 1.9972705
0.52553737 0.057255976 1.9972705
0.53486538 0.057255972 1.9972705
0.54046214 0.05912048 1.9972705
0.58523643 0.055391461 1.9972705
0.4173328 0.062849499 1.9972705
0.42106399 0.062849499 1.9972705
0.43412316 0.064714007 1.9972705
0.52553737 0.064714007 1.9972705
0.53486538 0.064714007 1.9972705
0.54326051 0.065646261 1.9972705
0.58399272 0.065335512 1.9972705
0.39494565 0.07030753 1.9972705
0.42479518 0.074036546 1.9972705
0.43598875 0.074036554 1.9972705
0.47516623 0.077765569 1.9972705
0.51807499 0.074036546 1.9972705
0.52553737 0.074036561 1.9972703
0.53486538 0.074036554 1.9972705
0.54419333 0.074036546 1.9972703
0.5553869 0.077765569 1.9972705
0.57653034 0.076522559 1.9972705
0.58337086 0.074036554 1.9972705
0.38468486 0.086155862 1.9972705
0.39494565 0.087088108 1.9972705
0.40613922 0.088952623 1.9972705
0.41360161 0.087088108 1.9972705
0.42603892 0.087709606 1.9972705
0.43505597 0.086155847 1.9972705
0.51061261 0.088952616 1.9972705
0.54419333 0.0852236 1.9972703
0.55538696 0.0852236 1.9972703
0.56471491 0.087088108 1.9972705
0.57450926 0.085689723 1.9972705
0.58337086 0.0852236 1.9972705
0.39867684 0.094546147 1.9972705
0.40613922 0.094546154 1.9972705
0.4154672 0.094546147 1.9972705
0.42479521 0.094546154 1.9972705
0.43412316 0.094546147 1.9972705
0.45651031 0.096410654 1.9972705
0.46583828 0.094546154 1.9972705
0.47516623 0.094546147 1.9972705
0.48374796 0.094919048 1.9972705
0.51457894 0.09493579 1.9972705
0.54419327 0.094546154 1.9972705
0.5553869 0.094546154 1.9972705
0.56471491 0.094546147 1.9972705
0.57404292 0.094546154 1.9972705
0.58449024 0.094919048 1.9972705
0.40560621 0.10280326 1.9972706
0.4154672 0.10200419 1.9972705
0.42526156 0.10340256 1.9972705
0.43598875 0.1038687 1.9972703
0.44531673 0.10573319 1.9972705
0.45464474 0.1038687 1.9972703
0.46549878 0.10350089 1.9972706
0.47570491 0.10476771 1.9972705
0.48507744 0.10399696 1.9972703
0.49568781 0.10386869 1.9972703
0.50547707 0.1039598 1.9972705
0.51527584 0.1044357 1.9972705
0.53673095 0.10386869 1.9972705
0.54419327 0.10386869 1.9972703
0.5553869 0.10386869 1.9972703
0.56471491 0.10386869 1.9972705
0.57404286 0.1038687 1.9972703
0.58523643 0.10386869 1.9972703
0.59363151 0.10480095 1.9972705
0.60389233 0.1075977 1.9972705
0.61135471 0.1075977 1.9972705
0.42628765 0.11654735 1.9972705
0.43598878 0.11505575 1.9972703
0.44531676 0.11505574 1.9972705
0.45464468 0.11505573 1.9972703
0.46439648 0.11515703 1.9972705
0.47438383 0.11418408 1.9972705
0.48669091 0.11479221 1.9972706
0.49568781 0.11505573 1.9972703
0.50501585 0.11505574 1.9972705
0.51481128 0.11557576 1.9972705
0.52184105 0.11662117 1.9972705
0.53518456 0.11491869 1.9972705
0.54419333 0.11505575 1.9972703
0.5553869 0.11505575 1.9972703
0.56471491 0.11505574 1.9972705
0.57404286 0.11505575 1.9972703
0.58523643 0.11558847 1.9972706
0.59456432 0.11505574 1.9972705
0.60389233 0.11505575 1.9972703
0.61135471 0.11132672 1.9972705
0.44531676 0.12624279 1.9972705
0.45464474 0.12624279 1.9972703
0.46549878 0.1269695 1.9972706
0.47213289 0.12318259 1.9972705
0.48635983 0.12624279 1.9972705
0.49568781 0.12624279 1.9972703
0.50501585 0.12624279 1.9972705
0.51387739 0.12670891 1.9972705
0.52535886 0.12600365 1.9972705
0.53486538 0.12624279 1.9972705
0.54419333 0.12624279 1.9972703
0.55389446 0.12475119 1.9972705
0.56471491 0.12624279 1.9972705
0.57404286 0.1262428 1.9972703
0.58523643 0.12624279 1.9972703
0.59456438 0.12624279 1.9972705
0.60342592 0.12577665 1.9972705
0.465092 0.13519244 1.9972705
0.47213289 0.13818008 1.9972705
0.48635983 0.13556534 1.9972705
0.49568781 0.13556534 1.9972705
0.527403 0.13556534 1.9972705
0.53486538 0.13556534 1.9972705
0.54419339 0.13556533 1.9972705
0.55538696 0.13556534 1.9972705
0.56471491 0.13556534 1.9972705
0.57404286 0.13556534 1.9972705
0.58523643 0.13556534 1.9972705
0.59456432 0.13556533 1.9972705
0.6020267 0.13556534 1.9972705
0.47335762 0.14641336 1.9972705
0.48449421 0.14488788 1.9972703
0.49494156 0.14265047 1.9972705
0.527403 0.1486169 1.9972705
0.53486538 0.14488788 1.9972705
0.54419333 0.14488789 1.9972703
0.55538684 0.14488789 1.9972703
0.56471491 0.14488788 1.9972705
0.57404286 0.14488786 1.9972703
0.58523643 0.14488788 1.9972703
0.59456432 0.14488789 1.9972705
0.6028263 0.14542061 1.9972706
0.61135471 0.1486169 1.9972705
0.52740294 0.15607494 1.9972705
0.53486538 0.15607493 1.9972705
0.54419333 0.15607493 1.9972703
0.5553869 0.15607493 1.9972703
0.56471491 0.15607493 1.9972705
0.57404286 0.15607494 1.9972703
0.58523643 0.15560879 1.9972705
0.59456438 0.15607493 1.9972705
0.60389233 0.15607491 1.9972703
0.61135471 0.15607493 1.9972705
0.52553737 0.16539747 1.9972705
0.53486538 0.16539747 1.9972705
0.54419339 0.16539747 1.9972705
0.5553869 0.16539748 1.9972705
0.56471491 0.16539747 1.9972705
0.5740428 0.16539748 1.9972705
0.58569282 0.16472302 1.9972706
0.59456432 0.16539747 1.9972705
0.60389233 0.16539747 1.9972705
0.61135471 0.16539747 1.9972705
0.52540505 0.17642371 1.9972705
0.53637838 0.1761425 1.9972705
0.5451768 0.17503795 1.9972703
0.5553869 0.17472002 1.9972703
0.56523037 0.1748756 1.9972705
0.57441843 0.17380071 1.9972705
0.58523637 0.17472002 1.9972703
0.59456438 0.17472003 1.9972705
0.6028263 0.17418732 1.9972706
0.54539728 0.18569212 1.9972705
0.55584937 0.18407559 1.9972705
0.56543905 0.1850244 1.9972705
0.57559955 0.18640432 1.9972705
0.58523643 0.18590708 1.9972703
0.59456438 0.18590707 1.9972705
0.6020267 0.18590707 1.9972705
0.57777405 0.1952296 1.9972705
0.58523643 0.19522962 1.9972705
0.59456432 0.1952296 1.9972705
0.6020267 0.19522959 1.9972705
0.57628155 0.20380636 1.9972705
0.58523643 0.20455214 1.9972703
0.59456438 0.20455216 1.9972705
0.6020267 0.20455216 1.9972705
0.58523637 0.21573921 1.9972703
0.59456432 0.21946822 1.9972705
0.60389233 0.21573922 1.9972703
0.61401981 0.2152065 1.9972706
0.60389233 0.22506174 1.9972705
0.61259848 0.22444025 1.9972705
0.52746838 0.084751494 2.0080786
0.53590947 0.085688837 2.0080788
0.52808428 0.097224042 2.0080786
0.53456479 0.094368681 2.0080788
0.40835637 0.10818508 2.0080786
0.41585952 0.10818508 2.0080786
0.42336261 0.10818508 2.0080786
0.51527584 0.10443571 2.0080786
0.5283072 0.10495118 2.0080786
0.53403366 0.1044357 2.0080786
0.40835637 0.11193446 2.0080786
0.41585952 0.11380915 2.0080786
0.42523837 0.11380915 2.0080786
0.47776023 0.11755852 2.0080786
0.48338756 0.11755852 2.0080786
0.52730739 0.11584958 2.0080786
0.53330481 0.11454454 2.0080786
0.47663474 0.12543222 2.0080786
0.48338756 0.12505728 2.0080786
0.47776026 0.13443071 2.0080786
0.48338756 0.13443071 2.0080786
0.47738504 0.14492896 2.0080786
0.5265305 0.17192446 2.0080786
0.53215784 0.17192446 2.0080786
0.57717657 0.17754851 2.0080786
0.58092809 0.17754851 2.0080786
0.57592607 0.18567216 2.0080786
0.58092809 0.18504727 2.0080786
0.54341251 0.19629538 2.0080786
0.55654299 0.1944207 2.0080786
0.56592184 0.1944207 2.0080788
0.57530081 0.1944207 2.0080786
0.54528832 0.20566884 2.0080786
0.55466723 0.20566882 2.0080788
0.56592184 0.20566882 2.0080788
0.57436293 0.20660616 2.0080786
0.54528832 0.21504226 2.0080786
0.55466723 0.21316758 2.0080786
0.56498402 0.21410491 2.0080786
0.57530081 0.21504226 2.0080786
0.5096485 0.22066632 2.0080786
0.51527584 0.22816506 2.0080786
0.52465475 0.22816508 2.0080786
0.53590941 0.22441569 2.0080786
0.54528832 0.22066632 2.0080786
0.56217033 0.22066632 2.0080786
0.57530081 0.22066632 2.0080786
0.5096485 0.23941319 2.0080786
0.51527584 0.23566382 2.0080786
0.52465469 0.23566382 2.0080788
0.53590947 0.23566382 2.0080788
0.54341251 0.23941319 2.0080786
0.51527584 0.24503723 2.0080786
0.52465475 0.24503723 2.0080786
0.53590941 0.24503723 2.0080786
0.5096485 0.25628537 2.0080786
0.51527584 0.25441068 2.0080786
0.52465469 0.25441065 2.0080788
0.53590947 0.25441065 2.0080788
0.55466723 0.25816005 2.0080786
0.56217033 0.25816005 2.0080786
0.58843124 0.25816005 2.0080786
0.5081479 0.26640868 2.0080786
0.51527584 0.26565883 2.0080786
0.52465469 0.26565883 2.0080788
0.53483754 0.26512322 2.0080786
0.55466723 0.26565883 2.0080788
0.56538594 0.26673007 2.0080786
0.58843124 0.26378411 2.0080786
0.59546536 0.26519015 2.0080786
0.51527584 0.27503222 2.0080786
0.52371681 0.27409488 2.0080786
0.53497154 0.27409488 2.0080786
0.55466723 0.27503225 2.0080786
0.5659219 0.27503225 2.0080786
0.57530081 0.27690691 2.0080786
0.58467966 0.27690691 2.0080786
0.59405857 0.27315754 2.0080786
0.53440881 0.28590542 2.0080786
0.5462262 0.28534299 2.0080786
0.55466723 0.28440568 2.0080788
0.5659219 0.28440568 2.0080788
0.57530081 0.28440568 2.0080786
0.5846796 0.28440568 2.0080788
0.54528832 0.29565382 2.0080786
0.55466723 0.29565379 2.0080788
0.56367099 0.29490393 2.0080786
0.57530081 0.2937791 2.0080786
0.58092809 0.29190442 2.0080786
0.55466723 0.30502725 2.0080786
0.56217033 0.30502722 2.0080786
0.52398843 0.095625326 2.0198679
0.52964485 0.10237604 2.0198679
