# .PCD v0.7 - Point Cloud Data file format
VERSION 0.7
FIELDS x y z
SIZE 4 4 4
TYPE F F F
COUNT 1 1 1
WIDTH 248
HEIGHT 1
VIEWPOINT 0 0 0 1 0 0 0
POINTS 248
DATA ascii
-0.94306058 -0.68444586 1.6084778
-0.93618196 -0.67525345 1.6084778
-0.94286281 -0.62210399 1.6015757
-0.93839431 -0.62226474 1.6015757
-0.93155736 -0.61979008 1.6015757
-0.92847425 -0.61979008 1.6015757
-0.93702173 -0.57907623 1.6084778
-0.94166589 -0.68118656 1.6163653
-0.93994975 -0.68289137 1.6163653
-0.94166589 -0.67190379 1.6163653
-0.93697786 -0.67208266 1.6163653
-0.92928165 -0.62239575 1.6163653
-0.93609297 -0.58340818 1.6163653
-0.9323777 -0.57907623 1.6163653
-0.94166589 -0.69046932 1.6232665
-0.93856978 -0.69046932 1.6232665
-0.94166589 -0.68582797 1.6232665
-0.93725818 -0.68434393 1.6232665
-0.93592882 -0.67504323 1.6232666
-0.94166589 -0.66880953 1.6232665
-0.93856978 -0.66880953 1.6232665
-0.93061715 -0.64402813 1.6232665
-0.93061715 -0.6362555 1.6232665
-0.93372798 -0.62226474 1.6232665
-0.93683887 -0.6036104 1.6232665
-0.93340969 -0.59661031 1.6232666
-0.94755137 -0.70020056 1.6301671
-0.93861735 -0.6932261 1.6348988
-0.93784046 -0.68532461 1.6360817
-0.94129997 -0.67520964 1.6380532
-0.93683887 -0.67511868 1.6301671
-0.9506771 -0.66583812 1.6380533
-0.94516259 -0.66617149 1.6380531
-0.93727416 -0.66578728 1.6354245
-0.94306058 -0.65646434 1.6301671
-0.93536931 -0.65601939 1.6335469
-0.93105239 -0.64505041 1.6327958
-0.93439573 -0.62373888 1.6341102
-0.94129997 -0.61741817 1.6341102
-0.93817431 -0.61741817 1.6341102
-0.93528342 -0.60827398 1.6380532
-0.93061715 -0.59739226 1.6380532
-0.92824972 -0.59248471 1.6380533
-0.93149745 -0.58355582 1.6341102
-0.92761993 -0.57580173 1.6321386
-0.95527077 -0.71692866 1.6459388
-0.95204216 -0.70665765 1.6459386
-0.94304109 -0.69412351 1.6459386
-0.93817431 -0.69082898 1.6459386
-0.94391161 -0.6879167 1.6459386
-0.93760103 -0.6879167 1.6459386
-0.94129997 -0.67208576 1.6459386
-0.93504858 -0.67625093 1.6459386
-0.94129997 -0.6674 1.6459386
-0.93432522 -0.66493738 1.6459388
-0.93148863 -0.65554804 1.6459388
-0.92879725 -0.6533426 1.6459386
-0.93005866 -0.64545369 1.6459386
-0.92879725 -0.64709491 1.6459386
-0.9328329 -0.6221844 1.6459386
-0.9328329 -0.61595881 1.6459386
-0.93165416 -0.6041286 1.6459388
-0.92802256 -0.59354085 1.6459388
-0.92750633 -0.58495605 1.6459386
-0.95127404 -0.71419567 1.6574372
-0.94490063 -0.70395064 1.6545626
-0.94391161 -0.69737715 1.6528379
-0.94391161 -0.68318653 1.6528379
-0.93760103 -0.68318653 1.6528379
-0.94262064 -0.67370164 1.6528379
-0.93607551 -0.67525578 1.6542177
-0.93476939 -0.66742432 1.6562873
-0.92752665 -0.65484118 1.652838
-0.93005866 -0.6407457 1.6597368
-0.93160665 -0.60464364 1.6562873
-0.93005866 -0.59994298 1.6528379
-0.92723441 -0.59555119 1.6528379
-0.92801583 -0.58383667 1.6545626
-0.93005866 -0.57326436 1.6597368
-0.93005866 -0.56698704 1.6597368
-0.94889706 -0.72166628 1.6676208
-0.95022225 -0.71945143 1.6676208
-0.94779903 -0.71590918 1.6676209
-0.94617242 -0.70509404 1.6676209
-0.94572508 -0.69789034 1.6676208
-0.93938112 -0.69789034 1.6676208
-0.94075632 -0.6879167 1.6676208
-0.932868 -0.68476331 1.6676209
-0.93381464 -0.67656416 1.6676209
-0.9290002 -0.67471278 1.6676208
-0.93110555 -0.66794747 1.6676209
-0.92786074 -0.66635019 1.6676209
-0.93067455 -0.65482634 1.6676208
-0.92691815 -0.65957767 1.6676208
-0.93292999 -0.64489597 1.6676209
-0.93129039 -0.63746113 1.6676208
-0.92691815 -0.63132966 1.6676208
-0.92722243 -0.62421268 1.6676208
-0.93048012 -0.61161584 1.6676208
-0.9281351 -0.6153869 1.6676209
-0.93303722 -0.60754168 1.6676208
-0.92761606 -0.60658127 1.6676209
-0.93129039 -0.572815 1.6676208
-0.94799727 -0.72461522 1.6755042
-0.94701332 -0.71471751 1.6755042
-0.94572508 -0.70740068 1.6755042
-0.94413912 -0.69472021 1.6755042
-0.9362092 -0.69366354 1.6755042
-0.93303722 -0.68520987 1.6755042
-0.92986524 -0.68203968 1.6755042
-0.93048012 -0.67368591 1.6755042
-0.92815185 -0.67435712 1.6755042
-0.92986524 -0.66460401 1.6755042
-0.92928857 -0.65553421 1.6755042
-0.93303722 -0.64399815 1.6755042
-0.9281351 -0.64692158 1.6755042
-0.92900014 -0.63281679 1.6755042
-0.92751729 -0.624277 1.6755044
-0.95536911 -0.74218512 1.683387
-0.95386994 -0.7342059 1.683387
-0.94887334 -0.73407006 1.683387
-0.94440722 -0.72318876 1.683387
-0.9448123 -0.71506602 1.6833869
-0.93684995 -0.71029139 1.683387
-0.94171375 -0.70413315 1.6833872
-0.93525511 -0.70292723 1.6833869
-0.9425531 -0.69789034 1.683387
-0.93264878 -0.69521397 1.683387
-0.92986524 -0.69313514 1.683387
-0.9322201 -0.68335974 1.683387
-0.92986524 -0.68679488 1.683387
-0.93048012 -0.67846054 1.683387
-0.92840844 -0.67841834 1.683387
-0.93048012 -0.66572821 1.683387
-0.93366504 -0.65617901 1.683387
-0.93366504 -0.64344668 1.683387
-0.92756844 -0.63361502 1.683387
-0.9269942 -0.6262511 1.683387
-0.94508165 -0.73407114 1.6912693
-0.94137841 -0.71610814 1.6912693
-0.93442696 -0.71409035 1.6912693
-0.93480796 -0.70560038 1.6912694
-0.93048012 -0.69755906 1.6912694
-0.93002748 -0.6851663 1.6912694
-0.92840844 -0.68161625 1.6912694
-0.9316082 -0.67202258 1.6912694
-0.92729515 -0.67846054 1.6912694
-0.93336535 -0.66565573 1.6912694
-0.93442702 -0.65608668 1.6912694
-0.9315418 -0.64609927 1.6912693
-0.92729515 -0.64344668 1.6912694
-0.9278518 -0.63376528 1.6912694
-0.94271201 -0.7374081 1.7028946
-0.93592644 -0.73514748 1.7035842
-0.94289315 -0.72374082 1.7001363
-0.93523419 -0.72334319 1.7030917
-0.9337737 -0.714127 1.705308
-0.93305051 -0.70418787 1.7030095
-0.93307012 -0.69451785 1.7012856
-0.92840844 -0.69440776 1.7001363
-0.93294823 -0.68665105 1.7016686
-0.9287343 -0.68498677 1.7024349
-0.93380153 -0.675475 1.7024349
-0.92938602 -0.67564201 1.7047336
-0.93347424 -0.66686189 1.7009026
-0.92877096 -0.66518313 1.7042738
-0.93097591 -0.656757 1.7001364
-0.92652738 -0.65582192 1.7051513
-0.9313904 -0.73428279 1.7149128
-0.93146813 -0.72477806 1.7149129
-0.93476069 -0.70320261 1.7149129
-0.93764061 -0.69843304 1.7149129
-0.92560214 -0.67354506 1.7149128
-0.92637849 -0.66503286 1.7149129
-0.93187666 -0.74385691 1.7237781
-0.92938596 -0.74380809 1.7237781
-0.93263388 -0.7356931 1.7237781
-0.93296421 -0.72217739 1.7237781
-0.93303031 -0.71394128 1.7237781
-0.93329453 -0.70699441 1.7237781
-0.93036216 -0.6917668 1.7237781
-0.93036216 -0.68524522 1.7237781
-0.92855555 -0.68219042 1.7237781
-0.93036216 -0.67872357 1.7237781
-0.92691588 -0.75101715 1.7316576
-0.93145841 -0.74268454 1.7316576
-0.92766207 -0.74527401 1.7316577
-0.9322741 -0.73450345 1.7316577
-0.92938596 -0.73731607 1.7316576
-0.93232214 -0.72539926 1.7316577
-0.93408364 -0.71567672 1.7316579
-0.92997837 -0.71695131 1.7316576
-0.93675399 -0.70513266 1.7316576
-0.93183494 -0.69366151 1.7316576
-0.93183494 -0.68874532 1.7316576
-0.92657799 -0.68415356 1.7316576
-0.9259764 -0.75459373 1.7461488
-0.93138355 -0.74394387 1.7464302
-0.92760664 -0.74437386 1.742491
-0.93032652 -0.73795974 1.7483997
-0.92844212 -0.7343812 1.7444606
-0.93248188 -0.72452098 1.7416469
-0.92788398 -0.72478539 1.7465817
-0.93106353 -0.7141102 1.742491
-0.92801619 -0.71452868 1.7472744
-0.93326932 -0.70518148 1.7428849
-0.92820185 -0.70576096 1.7452484
-0.9334746 -0.6985777 1.7405213
-0.92715061 -0.69465828 1.7444606
-0.92424226 -0.68730718 1.744023
-0.93301284 -0.75207376 1.7572621
-0.92836064 -0.75330937 1.7572621
-0.93301284 -0.74706322 1.7572621
-0.92702037 -0.73302472 1.7572621
-0.92600489 -0.72610837 1.7572621
-0.93241096 -0.71438807 1.7572621
-0.92747456 -0.71621293 1.7572621
-0.93262649 -0.70882517 1.7572621
-0.92575169 -0.70418942 1.7572621
-0.92411375 -0.69694394 1.7572621
-0.93430597 -0.76589489 1.766124
-0.93430597 -0.75918078 1.766124
-0.92513907 -0.73523134 1.766124
-0.92298591 -0.72535074 1.7661241
-0.93094695 -0.76253784 1.773016
-0.93262649 -0.75582373 1.773016
-0.93430597 -0.74910963 1.773016
-0.92799938 -0.74205261 1.773016
-0.92465699 -0.73871225 1.773016
-0.92422897 -0.72225332 1.773016
-0.92422897 -0.71595895 1.773016
-0.93219012 -0.76463425 1.7818767
-0.92485052 -0.76342452 1.7818767
-0.93177575 -0.75383103 1.7818768
-0.93094695 -0.74910963 1.7818767
-0.92687714 -0.74586695 1.7818768
-0.92422903 -0.73568147 1.7818768
-0.92427969 -0.72776705 1.7818768
-0.92712104 -0.77052474 1.7907364
-0.92555326 -0.76413018 1.7940586
-0.9323656 -0.75709075 1.7936895
-0.92622197 -0.75566548 1.7951663
-0.92408264 -0.74604458 1.7918438
-0.92374492 -0.73654306 1.7907363
-0.93094522 -0.76335275 1.8084542
-0.92362243 -0.76550525 1.8084543
-0.93094522 -0.7581867 1.8084542
-0.92319167 -0.75560367 1.8084542
