# .PCD v0.7 - Point Cloud Data file format
VERSION 0.7
FIELDS x y z
SIZE 4 4 4
TYPE F F F
COUNT 1 1 1
WIDTH 878
HEIGHT 1
VIEWPOINT 0 0 0 1 0 0 0
POINTS 878
DATA ascii
-0.14718749 -0.15149999 0.0096294684
-0.10349999 -0.15149999 2.2065938e-06
-0.076749995 -0.15149999 2.2065938e-06
-0.053999998 -0.15149999 2.2065938e-06
-0.017250001 -0.15149999 2.2065938e-06
0.020249993 -0.15149999 2.2065938e-06
0.076499999 -0.15149999 2.2065938e-06
0.1065 -0.15149999 2.2065938e-06
0.15149997 -0.1515 0.011204914
-0.14025 -0.14649999 0.019007433
-0.10349999 -0.14649999 0.019007431
-0.078250006 -0.14649999 0.019007433
-0.052500002 -0.14649999 0.019007433
-0.017250001 -0.14649999 0.019007433
0.020249993 -0.14649999 0.019007433
0.076499999 -0.14649999 0.019007433
0.10649999 -0.14649999 0.019007431
0.14649998 -0.14649999 0.019007433
-0.14255555 -0.09375 0.012672017
-0.10831825 -0.11117158 0.0087111192
-0.077499993 -0.09375 0.0095044374
-0.05325 -0.09375 0.0095044365
-0.017250001 -0.09375 0.0095044374
0.020249993 -0.09375 0.0095044374
0.076499999 -0.09375 0.0095044374
0.11133473 -0.11113524 0.0087741362
0.14649998 -0.09375 0.019007437
0.15149997 -0.09375 2.209388e-06
-0.14235716 -0.07417056 0.0095044365
-0.099492848 -0.073471017 0.010318949
-0.073746048 -0.076468751 0.0090081599
-0.038122386 -0.066657193 0.01922843
-0.0090143634 -0.076025121 0.020332118
0.0081578661 -0.075998113 0.017918089
0.039027996 -0.066289134 0.019454181
0.076430671 -0.076347746 0.0089233629
0.10275 -0.073609866 0.0089454595
0.14649999 -0.073423058 0.019007441
0.15149999 -0.074104905 2.2100658e-06
-0.14316665 -0.033975899 0.0095044402
-0.10349999 -0.033975899 0.0095044402
-0.065961033 -0.040120028 0.024561193
-0.050796248 -0.054050293 0.026223537
-0.018004026 -0.033468619 0.013005454
0.016273076 -0.040920287 0.013005452
0.052264504 -0.054469738 0.026809052
0.067054398 -0.038607329 0.023681806
0.10649999 -0.033975899 0.0095044393
0.14649998 -0.033975899 0.019007439
0.15149997 -0.033975899 2.2112513e-06
-0.074960731 -0.0063719708 0.019796299
-0.047962494 -0.0065024039 0.020007793
-0.00080570951 -0.021653932 0.020007793
0.025759196 -0.0063166758 0.020007793
0.076412991 -0.0072973026 0.020168934
-0.077407546 0.01384961 0.0245126
-0.047401875 0.018685821 0.020007793
-0.019155709 0.0101292 0.020007793
0.0074091963 0.025466455 0.020007793
0.053191565 0.0095214089 0.020007793
0.074495196 0.011567065 0.02403453
-0.14316666 0.030975908 0.009504443
-0.093289621 0.037700739 0.02464648
-0.068697147 0.039369382 0.024521006
-0.051252995 0.045840852 0.025121395
-0.015548162 0.035468545 0.011605037
0.020249993 0.030975908 0.0095044421
0.052050028 0.054723416 0.027106719
0.066521555 0.039366756 0.024078704
0.1065 0.030975908 0.0095044421
0.14649998 0.030975908 0.019007441
0.15149997 0.030975908 2.2140455e-06
-0.12543595 0.073457599 0.0082938801
-0.11786419 0.073037095 0.010569552
-0.077500001 0.066975951 0.009504444
-0.039514266 0.065296933 0.016021026
-0.013501014 0.078738369 0.023880702
0.01855338 0.077843249 0.025635473
0.038750365 0.065242954 0.019640937
0.074687496 0.067163453 0.0071288147
0.11805411 0.071963862 0.012035472
0.12720488 0.073487669 0.0086614136
0.15149997 0.067725956 2.2159086e-06
-0.14174999 0.090750009 0.0095044468
-0.10842875 0.10811787 0.0086737406
-0.077500001 0.090750009 0.0095044458
-0.05325 0.090750009 0.0095044458
-0.017250001 0.090750009 0.0095044458
0.0094808964 0.097176619 0.02694094
0.076499999 0.090750009 0.0095044458
0.1114146 0.10812622 0.0086182719
0.14649998 0.090750009 0.019007444
0.15149997 0.090750009 2.2168404e-06
-0.14366072 0.14133036 0.012326689
-0.10349999 0.13795833 0.010560298
-0.07760714 0.14114287 0.010861973
-0.05325 0.14075002 0.0095044477
-0.017250001 0.14075001 0.0095044477
0.020249993 0.14075002 0.0095044477
0.076499999 0.1420625 0.0095044477
0.10717104 0.13757893 0.010004586
0.14649999 0.13662499 0.019007448
0.15149999 0.14576924 0.0086195925
-0.033426262 -0.061546557 0.032918785
-0.014746753 -0.067035273 0.036040619
0.016966691 -0.06700591 0.035628021
0.033417206 -0.061543442 0.032936826
-0.061108537 -0.035281029 0.031280726
-0.043860365 -0.052774291 0.036085032
0.043930657 -0.052634735 0.035752945
0.061118163 -0.035287887 0.031149004
-0.067675196 -0.0089695267 0.039392333
-0.045191716 -0.026091449 0.034830991
0.067837447 -0.011263411 0.035409536
-0.073096924 0.0075903223 0.031734977
0.048871454 0.026979651 0.037910402
0.068120807 0.013098455 0.03395592
-0.090708047 0.039861359 0.031012049
-0.077385068 0.03685011 0.034719709
-0.049402878 0.043068543 0.034013499
0.041890197 0.053740732 0.039577447
0.061685447 0.033923693 0.031463109
0.025913624 0.072892398 0.031191155
0.032268863 0.063380793 0.032373544
0.0081518497 0.091667131 0.03456695
-0.0072646551 -0.061863482 0.074194729
0.0091768792 -0.061778948 0.074286617
-0.043553919 -0.043090943 0.077135287
-0.021857521 -0.057818644 0.079686679
0.023932263 -0.057028525 0.078062184
0.045188189 -0.041899454 0.077009752
-0.061727639 -0.0087628551 0.078452744
-0.054197345 -0.021560775 0.078672312
0.057019569 -0.024016306 0.079248823
0.061393891 -0.0099179186 0.075056612
-0.06385462 0.0094209202 0.082968049
-0.057367746 0.021730836 0.087025672
0.052859627 0.022950107 0.078409135
0.061633691 0.010136276 0.072256707
-0.090524748 0.039707359 0.076186381
-0.081586659 0.038617458 0.074395105
-0.045084871 0.045502357 0.084129691
-0.021801865 0.057457261 0.086925216
0.022963583 0.057363402 0.086156704
0.038260255 0.049236424 0.078929685
-0.03207393 0.061716527 0.080203645
-0.012338151 0.064449921 0.082713746
0.01576072 0.064573474 0.081703618
0.0085361404 0.094043873 0.074304126
-0.03879489 -0.044689532 0.10664113
-0.012888151 -0.057755824 0.10664113
0.016234688 -0.056943242 0.10664112
0.043088406 -0.040594373 0.10664112
-0.057308991 -0.012980145 0.10664113
0.057228345 -0.015070327 0.10664113
-0.056605704 0.017267905 0.10664113
0.057033442 0.015609227 0.10664113
-0.040679689 0.042979404 0.10664113
-0.012857288 0.057769518 0.10664113
0.017280515 0.056557175 0.10664113
0.0407704 0.042898718 0.10664112
-0.03886557 -0.041267671 0.13091192
-0.014655452 -0.052045655 0.12968597
0.01671149 -0.051686212 0.13079903
0.039384983 -0.041283108 0.13090904
-0.053507168 -0.015962683 0.12930484
0.05185305 -0.015962329 0.12997438
-0.051965132 0.014880357 0.13027626
0.052080575 0.016775381 0.13092674
-0.041245576 0.040136181 0.13062565
-0.015890721 0.051725328 0.12944649
0.01357663 0.053440653 0.12995011
0.038871065 0.041033097 0.13092411
-0.0026452043 -0.060331743 0.17505394
0.0036698394 -0.06030282 0.17530106
-0.040097158 -0.043848187 0.16487916
-0.0162674 -0.057337336 0.16626401
0.016693754 -0.057123125 0.16615102
0.042889968 -0.04094344 0.16752122
-0.057421878 -0.013048123 0.1662432
0.05714928 -0.016532885 0.16591154
-0.05610846 0.017205991 0.16802609
0.057809044 0.013786171 0.16491711
0.060228523 0.00018749957 0.17369689
-0.041915443 0.04123152 0.16636848
-0.014691503 0.056768909 0.16716982
0.01583652 0.056605928 0.1687835
0.040434431 0.043262877 0.16420762
-0.0081777424 -0.062021144 0.20323391
0.00760306 -0.061316341 0.19339535
-0.040502273 -0.044247907 0.19419941
-0.021514971 -0.057500385 0.19437532
0.022913653 -0.057382762 0.19413972
0.045085348 -0.0412549 0.19383264
-0.055622045 -0.013110237 0.19564219
0.058421325 -0.020550486 0.19638787
0.061575405 -0.0076213023 0.20035234
-0.047214221 0.016915416 0.19816436
0.05709425 0.01924384 0.19359703
0.061293855 0.0055923983 0.19890784
-0.037764661 0.036958575 0.1896116
-0.014611293 0.045942165 0.19661406
0.01466451 0.050332244 0.19805987
0.040279616 0.041795794 0.19350997
-0.016529921 -0.064302295 0.22954264
0.014423525 -0.064387441 0.22149277
0.033265039 -0.06019967 0.23094657
-0.040717661 -0.045263875 0.22611298
-0.028245036 -0.057551838 0.21978407
0.047295667 -0.04517927 0.22136952
-0.044080004 -0.015880508 0.22615428
-0.020419335 -0.0055643506 0.23527969
0.057405394 -0.028315973 0.21025485
0.064840093 -0.012275997 0.22845151
-0.038538408 0.0087923724 0.21637507
-0.014720959 0.015140169 0.22309159
0.014153242 0.019594431 0.23240538
0.050274748 0.024091452 0.23040721
0.063295946 0.0077108177 0.22500743
-0.0079203779 0.034439079 0.21383265
0.015122004 0.037219055 0.21923968
0.039505046 0.035183724 0.22183612
-0.032768227 -0.060323726 0.26098853
-0.017246742 -0.070148006 0.25668111
0.015142411 -0.073096879 0.25458077
0.041194871 -0.065495111 0.26050371
-0.036731716 -0.04354864 0.25482175
-0.027993968 -0.032705776 0.26650804
0.054989196 -0.050559159 0.2530967
0.06431561 -0.039580837 0.25700173
-0.034145173 -0.025275512 0.24580258
-0.013107172 -0.017448155 0.25605008
0.010131062 -0.0081604766 0.26405749
0.0705631 -0.015911547 0.25686368
-0.00025354745 0.00072538637 0.24060971
0.02024872 0.0068934504 0.25019795
0.045671429 0.014807635 0.25587821
0.06511829 0.0068422188 0.25688872
-0.03053057 -0.064375058 0.28915688
-0.017128874 -0.076408856 0.28542688
0.014690659 -0.084354378 0.28806853
0.044513945 -0.074290738 0.28624994
0.062342875 -0.06428764 0.29628769
-0.034093708 -0.044538736 0.28935039
-0.025654793 -0.033104796 0.28269893
0.070677534 -0.046935368 0.28665471
-0.043402087 -0.0097418465 0.29035866
-0.013808032 -0.020126116 0.276135
0.015357751 -0.0057843486 0.27258694
0.075128555 -0.012416363 0.28756186
-0.064081669 0.018242609 0.29437077
-0.046533126 0.017144347 0.28075269
-0.012154498 0.013005251 0.27237022
0.018372094 0.014975071 0.27875334
0.043886479 0.0095738117 0.28520861
0.063497931 0.0067384988 0.28752658
-0.06636101 0.040836263 0.29498866
-0.047798995 0.045666158 0.28040877
-0.015470132 0.045300223 0.27476841
0.016481524 0.044192657 0.28653589
0.033980299 0.036349948 0.29541156
-0.045981713 0.067317359 0.29198974
-0.015163566 0.070842966 0.29011917
0.0073958249 0.066558085 0.29475921
-0.031693459 -0.062278554 0.31351373
-0.016758105 -0.077900395 0.31577912
0.014673396 -0.088346668 0.31596583
0.046524517 -0.079720825 0.31538257
0.064517766 -0.065990299 0.31717554
-0.039237734 -0.043514397 0.31271926
0.075290769 -0.045603931 0.31576946
-0.063208282 -0.0072180852 0.31933135
-0.054588918 -0.018094465 0.31525457
0.076658703 -0.015120333 0.31595534
-0.071577132 0.0139014 0.31603879
0.053572375 0.017591555 0.31084216
0.065387301 0.007596984 0.31720975
-0.073485598 0.044484898 0.31637648
0.026347823 0.057693861 0.3048369
0.039314426 0.044599157 0.31600395
-0.065590046 0.063641421 0.31841335
-0.048123591 0.076760046 0.31403485
-0.014818784 0.085172065 0.31339505
0.015876543 0.076015629 0.31603178
0.034750342 0.063343838 0.32605094
-0.011006928 0.090189666 0.32831657
-0.016444409 -0.072260894 0.34476006
0.015198521 -0.086132452 0.3450833
0.046437122 -0.078113891 0.34839952
0.063860707 -0.064933844 0.34418958
-0.038945749 -0.044765912 0.34469154
-0.028392425 -0.053605177 0.35755682
0.072208643 -0.045325492 0.3457827
-0.063845716 -0.006707211 0.34179533
-0.054821569 -0.018591423 0.34670523
0.070827022 -0.01277309 0.34569085
-0.071665615 0.014005861 0.34595001
0.054136511 0.017601516 0.34820557
0.063849881 0.0070759631 0.34146884
-0.072748236 0.046416376 0.34576932
0.042071793 0.045417693 0.34744853
-0.063205145 0.065655448 0.34543818
-0.044578496 0.081145622 0.34577388
-0.020132583 0.089519709 0.34137225
0.021471813 0.084675498 0.34114981
0.04043261 0.069421396 0.34768882
-0.011053546 0.091808036 0.34806806
0.0075033987 0.091528699 0.35074303
0.51253819 0.20706099 0.36059088
-0.0087039694 -0.066005923 0.36753389
0.016064787 -0.072447263 0.37242135
0.044148982 -0.068422116 0.37086585
-0.033828869 -0.037505366 0.36579353
-0.016667427 -0.04424138 0.37612051
0.013142407 -0.047246747 0.38772151
0.043174673 -0.047221087 0.38334742
0.063989133 -0.043428432 0.36706507
-0.041076943 -0.0074989418 0.37676176
-0.017139656 -0.01528034 0.38242379
0.018209189 -0.0083260452 0.38725385
0.046818145 -0.015567723 0.37969384
0.063867472 -0.02062146 0.36636654
-0.06628681 0.020295467 0.37239435
-0.054564673 0.0055209128 0.38057628
-0.019309388 0.0038516582 0.38825628
0.015294787 0.020406071 0.38472265
0.043740366 0.010863319 0.37088388
-0.066107228 0.043181609 0.37205356
-0.056337044 0.055106889 0.38517961
0.026000325 0.032672767 0.37879527
0.043229572 0.043040358 0.37309849
0.063166931 0.050871965 0.38692576
0.40844968 0.059727192 0.38350669
-0.044805493 0.07347361 0.37387827
-0.017182788 0.086840495 0.37645036
0.015157376 0.088942327 0.38001755
0.046576846 0.074839771 0.37344447
0.062645629 0.06311214 0.38415146
0.3896794 0.062254455 0.38227758
0.39703724 0.06152796 0.37645218
-0.010261372 0.090960003 0.36580339
0.011177899 0.091384903 0.36573416
0.40749165 0.14714053 0.38336632
0.4209826 0.14692818 0.3848536
0.38679162 0.16564445 0.38376811
0.40418988 0.15770771 0.38044882
0.4285374 0.15643145 0.38166484
0.45478937 0.17465916 0.38597167
0.37903461 0.18875654 0.38691467
0.44708607 0.18353258 0.38755262
0.47188723 0.19024648 0.3711212
0.49734667 0.19973277 0.37201467
0.51705921 0.20235313 0.37055394
0.47437537 0.23114236 0.37329161
0.49236906 0.22370161 0.37237203
0.51503628 0.21366534 0.37049189
0.4757022 0.24153571 0.37267905
0.4820877 0.24119838 0.37256286
0.022961082 -0.037191488 0.3909646
-0.03558382 -0.00024485134 0.39085984
0.010059038 -0.01617559 0.39109895
-0.043844663 0.010726805 0.40274608
-0.012440967 0.0081893289 0.39897233
0.013111067 0.01821433 0.4027687
0.043052848 0.022397045 0.41152042
0.070911646 0.024556292 0.4152081
-0.049494188 0.044116184 0.40466937
-0.029464845 0.059779074 0.42075869
0.048120193 0.033555251 0.39731604
0.074440375 0.043545566 0.40404475
-0.035515182 0.066069163 0.40184864
-0.018877001 0.075977281 0.40437809
0.016560638 0.08649642 0.40732607
0.046470217 0.082740143 0.40417051
0.068380333 0.069650091 0.4058882
0.40003297 0.060502131 0.39151126
0.41249278 0.14780101 0.39234728
0.42878136 0.14912187 0.40601453
0.38853148 0.17119454 0.40728697
0.40032706 0.17041755 0.40985501
0.42580536 0.17039749 0.40629539
0.45719022 0.17254311 0.41078448
0.38373309 0.19861206 0.40658268
0.41395357 0.20410666 0.40279338
0.42973268 0.20601115 0.40225339
0.45955685 0.20109038 0.40732092
0.49710694 0.20446327 0.3964805
0.38647398 0.21605641 0.40651852
0.41010985 0.22183701 0.40345138
0.43003663 0.22448784 0.40287763
0.45742938 0.22307134 0.40563789
0.49756587 0.21298043 0.39633992
0.40470618 0.24612373 0.40599722
0.43710232 0.24516854 0.40469
0.4513059 0.24178958 0.40749225
-0.010890583 -0.0035222915 0.43621385
0.014868121 -0.0086189192 0.44098151
0.045449633 -0.0082488963 0.4422729
0.072247803 -0.0051804762 0.44446793
-0.035953764 0.018095642 0.4305445
-0.023262465 0.0067442972 0.4339574
0.016207594 0.0040566712 0.42695707
0.045412123 0.0074042678 0.42819935
0.078130759 0.011695279 0.43008748
0.096093222 0.016682774 0.44169304
-0.034141045 0.041824277 0.42981908
-0.024046062 0.048151344 0.44291961
0.089321882 0.04714578 0.42467597
0.098435439 0.040976297 0.43856928
-0.0092443768 0.070952334 0.43528041
0.013328072 0.082793303 0.43664151
0.044124115 0.087047443 0.43720469
0.074892141 0.075636514 0.4348014
0.38346598 0.14032544 0.4471997
0.40014276 0.14158672 0.43977049
0.43297642 0.13483553 0.43445745
0.46203211 0.14082256 0.43824831
0.37952882 0.16916341 0.44108576
0.4137266 0.17404006 0.43313944
0.4331378 0.17399007 0.42961526
0.46936432 0.16441306 0.42805576
0.48598313 0.1658794 0.44214556
0.35786483 0.2027858 0.45089635
0.38444948 0.19953936 0.43169215
0.40302807 0.19608307 0.43323368
0.43683082 0.1935816 0.43232232
0.45890054 0.20184499 0.43114704
0.48792264 0.18932398 0.44342354
0.35874382 0.22273083 0.44668821
0.38301346 0.22217815 0.43570447
0.40500003 0.22577605 0.43459538
0.43417919 0.2249978 0.43538028
0.45632446 0.22532885 0.43297932
0.48561236 0.22058977 0.4421488
0.37646356 0.25361428 0.43650639
0.40380481 0.24809298 0.43452463
0.43212131 0.25123325 0.43412021
0.45612234 0.24494703 0.43645117
0.48188326 0.2427419 0.44825551
0.38576284 0.27472252 0.44657713
0.40642616 0.27787519 0.43950278
0.43214715 0.27869242 0.4411191
0.4532907 0.27264768 0.44530925
-0.0039319154 -0.0069064894 0.4626087
0.015293194 -0.016599681 0.46620622
0.045177877 -0.021918688 0.46607891
0.076045245 -0.015762968 0.4658905
0.096012346 -0.0055070007 0.47054252
-0.016442278 0.013703934 0.46413761
0.10613251 0.013578973 0.46514773
-0.015053095 0.04459301 0.46493259
0.10872357 0.044651333 0.46247387
-0.0045721037 0.063201427 0.46810579
0.014314605 0.080145039 0.46613562
0.077294312 0.084503807 0.46174583
0.095493443 0.072024673 0.46301728
0.049623672 0.091826521 0.46945885
0.064894117 0.092206128 0.47388923
0.35237032 0.14409249 0.46887296
0.37801293 0.14364669 0.46365184
0.40079468 0.13222848 0.46682706
0.43775535 0.12495118 0.4610841
0.46664986 0.13261662 0.46750018
0.48451775 0.14571111 0.46526712
0.32990524 0.15705965 0.47819197
0.3484191 0.15632436 0.4711763
0.37457526 0.16028236 0.46461657
0.39550155 0.15403499 0.46620059
0.4943015 0.16493559 0.46629396
0.35520843 0.19754408 0.46860319
0.36094683 0.18151677 0.46634412
0.49463993 0.19008325 0.46833557
0.35359967 0.22505498 0.46561047
0.4929716 0.22340237 0.46564522
0.3578535 0.24932556 0.46856588
0.36525762 0.26117033 0.46319428
0.47133654 0.26505783 0.4641096
0.48400456 0.2482046 0.46514186
0.37974864 0.27813199 0.4653624
0.40594244 0.28939894 0.4677625
0.43832049 0.28702804 0.46603823
0.45682073 0.27797285 0.46571857
0.020463921 -0.013340624 0.49738288
0.045373656 -0.022559036 0.49693334
0.074621998 -0.020552997 0.49177817
0.09552417 -0.0080333147 0.49744466
-0.0052052564 0.019286871 0.49181771
0.0036586539 0.0039925962 0.49774736
0.11003962 0.015042684 0.49799725
0.12312718 0.02289523 0.50873238
-0.0051234677 0.043619025 0.49064487
0.001027499 0.043132603 0.50786084
0.11530913 0.043806173 0.49465358
0.12432212 0.043547567 0.5036968
0.011844357 0.073860958 0.49192587
0.043226264 0.084415101 0.50527459
0.077149644 0.085853904 0.49834895
0.10423965 0.075635247 0.4958345
0.042102445 0.094064072 0.49745393
0.076755449 0.096925214 0.49791732
0.091580443 0.094715767 0.50405747
0.35353321 0.11971753 0.50903332
0.29592085 0.14308305 0.50634974
0.31607586 0.13775016 0.49877846
0.34144574 0.12951253 0.49406713
0.38193059 0.13935445 0.49129415
0.39664295 0.13954139 0.49949098
0.43030775 0.12494921 0.49782288
0.46735817 0.13622354 0.49779207
0.48330364 0.14496772 0.49096611
0.28941286 0.16898188 0.50561059
0.31643993 0.16921259 0.48954478
0.34683144 0.16675499 0.4929139
0.37241355 0.16038364 0.49928686
0.39836773 0.15311827 0.50172752
0.47974807 0.17516719 0.50666934
0.49122834 0.16604248 0.49759117
0.29568741 0.18648432 0.50693327
0.31732121 0.18923005 0.5030899
0.34752586 0.19360864 0.4973639
0.36303717 0.18694374 0.50093991
0.47597799 0.18441282 0.50722378
0.49206209 0.18778031 0.49714956
0.3555555 0.22786437 0.49632755
0.49043772 0.22400424 0.49672952
0.35863763 0.24891084 0.4924438
0.36590818 0.25621015 0.50219959
0.47233054 0.26072559 0.49747145
0.48438087 0.24637084 0.49132505
0.38073725 0.27683774 0.49463859
0.40690958 0.28701755 0.49854708
0.43809319 0.28487653 0.49741989
0.45675951 0.27655354 0.4944126
0.020797275 -0.0048759324 0.51633853
0.050264455 -0.011194578 0.52750522
0.073994741 -0.012769422 0.52513689
0.10246911 -0.0034818752 0.52727759
0.012434267 0.01460579 0.52209973
0.039358243 0.002935621 0.53349286
0.11012937 0.007838387 0.52286428
0.12643985 0.018211739 0.53232431
0.014134775 0.047699615 0.5309037
0.13278572 0.045900926 0.52738404
0.020761477 0.071169876 0.52471
0.044546757 0.086186096 0.52294856
0.11717569 0.085668318 0.52338457
0.12519467 0.07625632 0.52597582
0.048352942 0.098270521 0.52686024
0.072279707 0.10214551 0.52570516
0.10337477 0.098405965 0.52932256
0.26789442 0.11922025 0.53528827
0.28822407 0.11218382 0.53538996
0.31585729 0.11319319 0.52968472
0.3459352 0.11575735 0.5257507
0.37235862 0.11873089 0.52435893
0.26212159 0.13629942 0.53385538
0.28373268 0.13339633 0.51921678
0.308642 0.12274436 0.51656258
0.38253793 0.12828025 0.52451998
0.40428695 0.14360406 0.52072054
0.43186027 0.13635297 0.53026837
0.46463627 0.14514509 0.52109772
0.25886512 0.16373195 0.53014004
0.27502626 0.1688727 0.5163973
0.3540121 0.17289051 0.51809871
0.37734693 0.16546656 0.52664846
0.4091908 0.1567408 0.52815771
0.43611267 0.16102447 0.53332257
0.46263069 0.16471124 0.53073627
0.48317471 0.16979946 0.51572394
0.26327601 0.18837918 0.53523535
0.28310645 0.19640382 0.52498138
0.31483859 0.20425086 0.52372956
0.34336343 0.19239528 0.52712625
0.37596664 0.19442862 0.52762711
0.39625806 0.18875758 0.53766841
0.44637045 0.18050538 0.5386464
0.46674708 0.1921909 0.5297066
0.48366183 0.19177961 0.51506817
0.29345596 0.21108143 0.5365718
0.3084389 0.21237846 0.53693086
0.3742373 0.2242277 0.52674448
0.39155188 0.2320994 0.53918582
0.46598667 0.22643586 0.53096211
0.48260447 0.22075693 0.51628536
0.37850684 0.25382736 0.52106535
0.40438116 0.25945306 0.53179264
0.43613982 0.25721368 0.53271443
0.46081737 0.25432542 0.52118272
0.40602463 0.27428383 0.5198338
0.43090051 0.27670354 0.5174467
0.049890757 -0.0046984013 0.55825859
0.077338077 -0.0095778378 0.55980617
0.099071614 -0.0060984148 0.55443347
0.024999356 0.015372051 0.55124187
0.036050718 0.0091596693 0.55835348
0.11408765 0.0044987951 0.55882341
0.12689133 0.018013664 0.55654013
0.01883249 0.040230561 0.55517805
0.13851795 0.044480942 0.55562901
0.024829285 0.074005142 0.55763423
0.032356013 0.085724361 0.56184787
0.1376688 0.073841713 0.55375296
0.045339704 0.098440334 0.55459344
0.075157382 0.11105406 0.5555768
0.1077855 0.10957622 0.5585326
0.12914214 0.097462267 0.56055892
0.22705598 0.1058678 0.5639447
0.25599352 0.10509504 0.55608368
0.28421149 0.10512618 0.55652612
0.31759059 0.10405329 0.55613488
0.3451843 0.11240389 0.55831921
0.36405382 0.11794771 0.54652339
0.20685801 0.13592033 0.56906509
0.22267863 0.13509421 0.55646276
0.24844147 0.13345708 0.54538929
0.35852596 0.1208341 0.56872374
0.3794364 0.12977104 0.55989563
0.40316314 0.13902596 0.5533269
0.42838308 0.14634632 0.54645199
0.22324389 0.16248821 0.56125045
0.24762341 0.16750053 0.55303115
0.38348994 0.17367852 0.54674762
0.40996623 0.16912456 0.55836385
0.43428749 0.16341032 0.5506683
0.45070758 0.1590405 0.54287791
0.23765615 0.18665281 0.56562918
0.25843725 0.19503085 0.55611926
0.27440095 0.20812695 0.54929453
0.35443628 0.2046347 0.55757242
0.37464991 0.19066185 0.55645752
0.40223226 0.18903311 0.55601323
0.43379158 0.19561189 0.54491758
0.28626323 0.21502516 0.55692011
0.31387699 0.21795078 0.5579375
0.33948794 0.21226466 0.55911666
0.40543219 0.22322223 0.54456705
0.43394071 0.22468215 0.54560202
0.45189247 0.21407965 0.54244262
0.4132874 0.24072042 0.54326117
0.42061698 0.24374445 0.54266828
0.075572491 -0.0031239348 0.57747048
0.09540157 -0.0015683146 0.57369906
0.045319788 0.012544909 0.5847134
0.076817669 0.006983045 0.59296429
0.10486652 0.016433284 0.58766854
0.12419888 0.025815217 0.57801992
0.025708301 0.047746595 0.58112639
0.033692718 0.03593418 0.59569108
0.11222374 0.039524619 0.59688377
0.13065779 0.045949139 0.5847888
0.026782205 0.066557124 0.58065873
0.033037156 0.081220433 0.58582956
0.14060928 0.07350821 0.58797783
0.17584728 0.086273484 0.60138863
0.19509439 0.078444429 0.59340078
0.22431675 0.076924019 0.5892784
0.25345072 0.081370063 0.58557981
0.27561051 0.084163845 0.58949167
0.04687392 0.10078263 0.58812261
0.068155266 0.11724843 0.58750129
0.1069258 0.11913209 0.57756472
0.13707384 0.10615587 0.58776253
0.17792614 0.10008519 0.60060447
0.19050567 0.10573859 0.58686459
0.22129142 0.092536107 0.5746637
0.2920433 0.097565159 0.58381402
0.31293312 0.10515971 0.58862674
0.33805019 0.11255202 0.58082575
0.083747134 0.12464787 0.59126896
0.10583726 0.12531593 0.5892272
0.12945153 0.12244772 0.59589779
0.19297445 0.133673 0.58755744
0.34814179 0.12736817 0.59322155
0.36881256 0.13786329 0.58180571
0.20381777 0.16033974 0.58772844
0.21578875 0.1745089 0.5822863
0.37498522 0.1602504 0.58954716
0.39724341 0.16897459 0.57551265
0.2247856 0.18653849 0.59150368
0.25398952 0.19721791 0.58277255
0.2750476 0.20252696 0.59423119
0.34856278 0.20297736 0.59031296
0.37351012 0.19245934 0.58185863
0.39563724 0.18446645 0.57215124
0.29077366 0.21598078 0.58269209
0.31383485 0.21595024 0.58610368
0.33555177 0.21362644 0.58075726
0.053094074 0.023434713 0.61023945
0.07439959 0.021325953 0.60966241
0.042734053 0.044042364 0.61827207
0.078153387 0.042746142 0.62298083
0.10080042 0.047333028 0.60869461
0.14708732 0.050646126 0.63145733
0.16363527 0.045982886 0.62412637
0.19341822 0.048013262 0.6183911
0.21917059 0.052404627 0.62308294
0.03576874 0.073968761 0.61528403
0.10807734 0.070239045 0.62099808
0.12926367 0.081415221 0.61353779
0.1648179 0.074455358 0.62018019
0.1948099 0.064807296 0.60299557
0.22949101 0.062429857 0.6121738
0.25589076 0.071189582 0.61570704
0.28030455 0.083776869 0.61223936
0.050654989 0.10905813 0.61815244
0.14456725 0.10344815 0.61819345
0.17406763 0.099143215 0.61509562
0.18388665 0.1102247 0.61880052
0.2947467 0.095779113 0.62147254
0.31054917 0.10915288 0.61204964
0.059107509 0.12229043 0.62798244
0.073965222 0.12939814 0.61623806
0.1047731 0.14019397 0.61696613
0.13651894 0.13285364 0.61734354
0.15085085 0.12151195 0.6305812
0.19253409 0.13465315 0.61704302
0.31935197 0.13129646 0.62146616
0.34515634 0.14086892 0.60743278
0.11475998 0.15039007 0.63117647
0.20275715 0.16111158 0.61498582
0.21381511 0.17589304 0.61864334
0.29289418 0.17308959 0.62991881
0.31577003 0.16326027 0.62572396
0.34613204 0.16496027 0.6114372
0.22930664 0.18919276 0.61578786
0.25339359 0.19594155 0.61823851
0.28511012 0.19463757 0.61678833
0.3166616 0.19737823 0.61255389
0.33875459 0.19230548 0.60746819
0.11704881 0.025930136 0.65934813
0.13602416 0.020293016 0.65129483
0.16448334 0.016514802 0.64748591
0.1861916 0.019375904 0.65022838
0.052954238 0.051089391 0.6410929
0.068717249 0.053584456 0.64027029
0.10801803 0.047209125 0.65549958
0.13294904 0.048107985 0.64072335
0.15191884 0.030480986 0.63533378
0.2033699 0.031540789 0.64685464
0.22561349 0.046643041 0.64651328
0.2424536 0.058786124 0.65615517
0.04583003 0.072239563 0.64953369
0.082193173 0.069289275 0.65437418
0.10481776 0.079783596 0.64494556
0.13555825 0.071131058 0.64126951
0.16581354 0.081067793 0.6480577
0.18210313 0.089214697 0.65922987
0.25479221 0.069886483 0.64660752
0.27196345 0.0852561 0.64547539
0.044645213 0.1035796 0.64749986
0.13771833 0.097623907 0.64049333
0.15901715 0.10905152 0.64907992
0.19218135 0.10554656 0.64680439
0.2874611 0.10440875 0.64516753
0.054042518 0.12520126 0.65512067
0.071983323 0.14116795 0.64702332
0.14335172 0.14548804 0.64214784
0.15544336 0.13221753 0.64920712
0.20478028 0.13247879 0.64405757
0.21364471 0.14119972 0.6564312
0.29229769 0.13547792 0.65266591
0.31283936 0.14165901 0.63732058
0.08201845 0.15291633 0.65557712
0.10513633 0.15830046 0.64955449
0.13282375 0.15695694 0.65254563
0.20715018 0.15666105 0.63398427
0.22217341 0.16599923 0.64790952
0.25522757 0.17332944 0.65505475
0.28164101 0.16797723 0.64983726
0.30518019 0.15916695 0.63771486
0.23472428 0.18369877 0.63790226
0.25549865 0.18653479 0.64012688
0.28383356 0.18445496 0.63754076
0.13902292 -0.0042207912 0.68385309
0.16345589 -0.0024418761 0.68314511
0.10881386 0.017379949 0.67773098
0.13165164 0.0051642894 0.66981322
0.16588299 0.0030633884 0.66976643
0.19520821 0.013213585 0.67884517
0.21254577 0.026535695 0.68873161
0.087217361 0.04437897 0.68405426
0.096053153 0.041559972 0.67365873
0.22648868 0.044515137 0.67627162
0.052960686 0.07705234 0.67456377
0.074343219 0.069764964 0.67694932
0.094703868 0.072847083 0.66776007
0.17728971 0.089255065 0.6644367
0.18085104 0.088535242 0.66244423
0.25047269 0.077212252 0.67688489
0.046802707 0.10250699 0.67995965
0.17357455 0.1124775 0.67509931
0.19251433 0.098002873 0.67799544
0.21274875 0.1144843 0.68570101
0.26023775 0.1063132 0.67901331
0.2774229 0.11453604 0.66371477
0.054777451 0.13058184 0.6806944
0.06582319 0.14552151 0.67428195
0.16703545 0.13498527 0.67833728
0.22396731 0.13346088 0.67851794
0.25289333 0.13560659 0.68028599
0.27479789 0.13354278 0.66661847
0.080474436 0.15818776 0.67906445
0.10538547 0.1675598 0.67732936
0.13630213 0.16411678 0.67577177
0.15481205 0.15388934 0.68145877
0.23105608 0.15541688 0.66808558
0.25187093 0.15831062 0.66840488
0.118769 -0.0023142998 0.70361364
0.13505498 -0.0072477031 0.70906913
0.16174288 -0.0052851317 0.70874608
0.10216434 0.01438538 0.70810598
0.17707942 0.0014815292 0.71176475
0.19436611 0.013005598 0.70731735
0.21158741 0.026594106 0.69977444
0.085410498 0.04293213 0.70536131
0.092303276 0.040242434 0.70910126
0.20930853 0.032853641 0.71876168
0.21974139 0.04285014 0.70790154
0.056151226 0.087339267 0.69751257
0.070075057 0.072205424 0.70473361
0.22947961 0.076112829 0.71034718
0.054262921 0.10671877 0.704454
0.062333636 0.097899571 0.71824121
0.17652141 0.11506042 0.71238339
0.19350804 0.098611116 0.70731908
0.2197427 0.10479011 0.70545608
0.2439664 0.10204898 0.69642252
0.057597235 0.12751751 0.70588291
0.064575881 0.13894987 0.70924008
0.17165124 0.13298474 0.70680171
0.23071444 0.12328047 0.69452578
0.078768842 0.15708727 0.7070325
0.10238739 0.16933697 0.7082532
0.13564064 0.16821536 0.70502806
0.15604869 0.15470235 0.70797622
0.13788052 -0.0037940058 0.72993827
0.15681414 -0.0036031103 0.7271142
0.11163982 0.016659789 0.73740494
0.13148868 0.0076611163 0.74286431
0.16601655 0.01098494 0.74148685
0.18907061 0.020292919 0.73194611
0.086727381 0.04896744 0.72495031
0.10053597 0.046314087 0.74076867
0.17772843 0.042414747 0.75132394
0.19656333 0.04529893 0.73926109
0.21323881 0.05467952 0.72736675
0.079923764 0.0783704 0.73425788
0.098790064 0.076579981 0.74522877
0.13401105 0.081225634 0.75132424
0.17275101 0.081745781 0.74829304
0.19582008 0.078244619 0.73547459
0.21448338 0.07143639 0.72663254
0.075263381 0.10470194 0.73756427
0.091755882 0.095300399 0.75108355
0.1325601 0.095248215 0.74974865
0.1673605 0.10581622 0.73911721
0.18739912 0.093470901 0.72935474
0.076346733 0.13494323 0.7355572
0.097471818 0.13912278 0.75068563
0.13836819 0.14166212 0.74807221
0.16024216 0.13349301 0.73423821
0.082906634 0.15461856 0.7273832
0.10614897 0.16065803 0.7363916
0.13389236 0.15875483 0.73536968
0.15204114 0.15277141 0.72779828
0.13692811 0.024043728 0.75517404
0.1563917 0.023169694 0.75445974
0.11538172 0.04497635 0.75362027
0.13586338 0.044317916 0.75963193
0.16322353 0.046715017 0.75778866
0.10914559 0.076141894 0.75633228
0.1378707 0.071559742 0.76140255
0.16091701 0.074272379 0.75723064
0.10435506 0.10781931 0.75721157
0.13594683 0.10301498 0.75861794
0.10943788 0.13218246 0.75665379
0.12976876 0.13350542 0.75527412
