# .PCD v0.7 - Point Cloud Data file format
VERSION 0.7
FIELDS x y z
SIZE 4 4 4
TYPE F F F
COUNT 1 1 1
WIDTH 1435
HEIGHT 1
VIEWPOINT 0 0 0 1 0 0 0
POINTS 1435
DATA ascii
0.082508676 0.066849358 0.42828411
-0.011684387 0.072284937 0.4281911
0.073297381 0.074705534 0.42685181
0.07814718 0.070917398 0.42745134
0.068000704 0.07812728 0.4265148
0.056330509 0.083560392 0.42670676
0.06231904 0.081103154 0.42646137
0.031291235 0.087345079 0.43061319
0.037502035 0.08734335 0.42922828
0.043817028 0.086709276 0.42810076
0.050128665 0.085443012 0.42725474
0.40901491 0.1397509 0.43069339
0.41500899 0.13952702 0.42881784
0.42249328 0.13763723 0.42889616
0.42774686 0.13943882 0.42680138
0.43227005 0.13759872 0.42855212
0.44083568 0.13987222 0.42739245
0.40690753 0.14249265 0.43016073
0.41252491 0.1426245 0.42771545
0.44723842 0.14028519 0.42870232
0.45340258 0.14081998 0.43066129
0.40757215 0.14718506 0.42837372
0.45675391 0.14652319 0.42718324
0.46256441 0.14743072 0.42970011
0.40375307 0.15126264 0.43037254
0.4074921 0.15261422 0.42692977
0.46502393 0.15393057 0.42665124
0.40772507 0.15570726 0.42640415
0.4238193 0.15730062 0.42812204
0.42664403 0.15798581 0.42687479
0.47038287 0.15510297 0.42969209
0.40402067 0.16006069 0.42782781
0.47187278 0.16212414 0.42718384
0.47667593 0.16342898 0.43065053
0.39273956 0.16507035 0.43039286
0.42146155 0.16688883 0.42805243
0.38689587 0.17301637 0.428633
0.45947379 0.17138717 0.42663485
0.46146786 0.1726837 0.42760032
0.47719574 0.17067114 0.42874768
0.41340205 0.17985743 0.42717823
0.41892338 0.1790776 0.42696059
0.42418227 0.17907077 0.42678741
0.42595488 0.17926338 0.42673814
0.47686777 0.17776123 0.42744786
0.38167167 0.18150555 0.42762768
0.40339133 0.1839007 0.42769539
0.40661088 0.18268467 0.42753309
0.41082561 0.18053094 0.42729437
0.42844078 0.18246655 0.42680541
0.4320229 0.18165039 0.42664978
0.43758175 0.18258046 0.4265103
0.44848448 0.18146132 0.43062454
0.45670074 0.18128106 0.42767164
0.47903574 0.18459632 0.42959061
0.39799467 0.18734722 0.42803314
0.40355954 0.18718451 0.42698684
0.40682006 0.18768513 0.42733142
0.41096377 0.18892044 0.42801523
0.41664854 0.18663815 0.42824885
0.42254621 0.18780918 0.42758283
0.42790374 0.18796463 0.42861015
0.43198815 0.18747267 0.42725691
0.44272178 0.18550356 0.42647728
0.44705114 0.18891266 0.42649367
0.47365648 0.18851365 0.42686281
0.4769052 0.18913636 0.42957404
0.37713137 0.19043243 0.42738935
0.39341971 0.19173799 0.42838773
0.40366113 0.19253007 0.42859069
0.40741429 0.19262853 0.43039152
0.41210622 0.19263442 0.42975318
0.42279157 0.19257045 0.42746115
0.42626107 0.19280563 0.43002251
0.43146658 0.19210663 0.42917308
0.43837899 0.19182752 0.42777607
0.44163409 0.19360995 0.42764419
0.44871086 0.19106357 0.42653918
0.45138296 0.19374451 0.42657614
0.37333128 0.19968642 0.42792112
0.389474 0.19715962 0.42876968
0.39058578 0.19562414 0.42866164
0.39725721 0.19861118 0.42944312
0.40272537 0.1958154 0.42860666
0.40770495 0.19713522 0.4305484
0.41240481 0.19663393 0.42967907
0.41761413 0.19730912 0.42785174
0.42455286 0.19668059 0.42759445
0.42810506 0.19605228 0.42917258
0.43201226 0.19620788 0.42732733
0.43928632 0.19995859 0.42726275
0.44292736 0.19851531 0.42707595
0.44689706 0.19835256 0.42734009
0.45298296 0.19741252 0.42669424
0.3875891 0.20358948 0.42913079
0.39415795 0.20442441 0.42995897
0.39684066 0.20405529 0.42884833
0.40006968 0.20489213 0.42878118
0.40767464 0.20074688 0.42833841
0.41294545 0.20242812 0.42824334
0.41762882 0.2014925 0.42804596
0.4218027 0.20093052 0.42788261
0.42761141 0.20226479 0.42775378
0.43468124 0.20190197 0.42750451
0.43783712 0.20300332 0.427452
0.4421066 0.20202671 0.42993075
0.44745994 0.2027899 0.42851031
0.45221925 0.20146136 0.42690766
0.45659295 0.20300454 0.42683572
0.47825938 0.20001347 0.42920777
0.37031871 0.20915322 0.42921641
0.38782203 0.20765927 0.42841467
0.39160556 0.20744103 0.4290522
0.40242803 0.20741773 0.42882115
0.40864941 0.20796289 0.42864197
0.41115528 0.20500182 0.42842188
0.43343273 0.20657197 0.42776278
0.43861222 0.20749731 0.42763558
0.44233474 0.20703809 0.42946875
0.44627604 0.20646708 0.42893454
0.45066747 0.20876347 0.4283036
0.45839277 0.20919533 0.42706445
0.47682437 0.20976089 0.42738682
0.38436633 0.21298097 0.42967349
0.38881838 0.2102327 0.42939937
0.39279598 0.21268402 0.42959815
0.4019706 0.21282017 0.42908752
0.40695998 0.21145496 0.42886007
0.43638694 0.21171819 0.42790508
0.44075143 0.21241455 0.42779407
0.4516691 0.21321304 0.42833412
0.45891577 0.21401218 0.42727146
0.38424188 0.21704686 0.42986682
0.39210334 0.21610296 0.43031847
0.39721903 0.21543023 0.42936507
0.40625766 0.21648259 0.42911705
0.43694362 0.21794505 0.42817649
0.44368935 0.21905245 0.42921749
0.4464542 0.2189478 0.42950925
0.45016786 0.21936207 0.42780778
0.45911011 0.21589339 0.42735258
0.47458479 0.21946953 0.4263401
0.38472709 0.22258575 0.43010852
0.38517812 0.22461917 0.43018833
0.39181462 0.22074765 0.43065184
0.39699766 0.22423705 0.42978206
0.40161195 0.22320724 0.42958248
0.40741375 0.22261415 0.42936426
0.43559232 0.22317003 0.42846394
0.44225314 0.22161447 0.42989671
0.44824824 0.22232603 0.43067321
0.45260784 0.22309701 0.42762473
0.45684543 0.22339721 0.42737395
0.38544258 0.22606055 0.43024662
0.39419478 0.22761805 0.43003148
0.40439481 0.22532491 0.42958957
0.40854338 0.2268575 0.42952454
0.41240948 0.22883105 0.42948925
0.43174553 0.22801255 0.42881572
0.43618193 0.22946556 0.42873746
0.4424319 0.22703709 0.42841905
0.44802856 0.22700226 0.42940053
0.45281532 0.22645909 0.42749953
0.45632204 0.22709039 0.42754611
0.47156873 0.22901924 0.42608067
0.37205788 0.2307243 0.42858014
0.38809934 0.23220713 0.43044531
0.39254001 0.23291296 0.42945772
0.39782628 0.23392358 0.43020549
0.40290609 0.23333539 0.43001112
0.40651056 0.23035985 0.42975426
0.41745234 0.23161343 0.42945299
0.42342716 0.23179595 0.42926511
0.42711785 0.23089471 0.42910182
0.432024 0.23289299 0.42903358
0.43704376 0.23349333 0.42889652
0.4467549 0.23268621 0.42954519
0.45445776 0.23438369 0.42836559
0.45517775 0.2331939 0.42828661
0.3915436 0.23626231 0.43052071
0.40990898 0.23849706 0.43002111
0.41217205 0.23589265 0.42982557
0.41865659 0.23624085 0.42962867
0.42063558 0.23907301 0.42969534
0.42837965 0.23681742 0.42933592
0.4396421 0.23814718 0.42902762
0.44270238 0.23757218 0.42990556
0.44655475 0.23554745 0.42867947
0.45298484 0.2369003 0.42853105
0.46781364 0.23829162 0.42661187
0.37670866 0.24244776 0.4280178
0.38193861 0.24151908 0.4260537
0.39422166 0.24190675 0.43069533
0.39627254 0.24378178 0.43071514
0.40253633 0.24128173 0.43039295
0.40954214 0.24081455 0.430141
0.41088939 0.24399519 0.43024465
0.41991791 0.24360673 0.42992988
0.42075893 0.24141686 0.42980033
0.42911017 0.24061237 0.42948845
0.4319104 0.24367838 0.42996997
0.43785724 0.24368246 0.42888179
0.44032654 0.24198481 0.4296864
0.4489471 0.24206837 0.42890421
0.3990635 0.24627081 0.43073928
0.40300646 0.24882708 0.43072852
0.41257858 0.24816053 0.42962408
0.41633576 0.24744712 0.4302263
0.42576104 0.24642736 0.43062311
0.43788806 0.24739461 0.42885977
0.44226158 0.24628867 0.42900595
0.46336561 0.24717191 0.42792702
0.38162801 0.25357404 0.42965293
0.39888331 0.25453448 0.42610225
0.40629476 0.25052467 0.43069944
0.41283235 0.25142634 0.42999724
0.4187679 0.25375789 0.43043989
0.42174467 0.25381207 0.43034455
0.42738587 0.25335985 0.43013811
0.43263122 0.25224292 0.42991382
0.43686074 0.25051865 0.42969456
0.38739541 0.25607654 0.42711923
0.45828006 0.25555015 0.43000996
0.40920186 0.26246032 0.42613187
0.4470062 0.26134792 0.42754149
0.41827628 0.26869437 0.42669129
0.43546584 0.26645577 0.42720357
0.42420369 0.27097037 0.42906296
-0.022366192 -4.584626e-05 0.43164897
-0.016232703 -0.0028793325 0.43436608
-0.008739098 -0.0032817533 0.43196225
-0.001751589 -0.0043646405 0.43396482
0.0052675265 -0.0049053598 0.43542323
0.03139155 -0.0017971925 0.43567523
0.051944397 -0.00036978043 0.43502095
0.013439545 4.9101953e-05 0.43108845
0.019876216 0.0012967587 0.4311339
0.036967754 0.00012281738 0.43445882
0.042030863 0.0023871062 0.4328278
0.05609566 0.002533566 0.4326708
0.067085594 0.0029679458 0.43324634
-0.031104054 0.0075254752 0.4323366
0.078654692 0.0074199131 0.43269134
0.08747378 0.011646722 0.43466052
-0.034433126 0.017773025 0.43447551
0.08885023 0.017094299 0.431227
-0.037128374 0.022941601 0.43118399
0.095282309 0.026398439 0.43327263
-0.033468742 0.037737831 0.43445081
-0.033498675 0.043502793 0.43100658
0.097552709 0.042798765 0.43560368
0.095377319 0.048250079 0.433669
-0.0184636 0.063939147 0.43372419
0.014656782 0.084119573 0.43575642
0.019606136 0.085592359 0.43399835
0.025280509 0.086740315 0.43222266
0.40659422 0.13476437 0.43550143
0.41278669 0.133829 0.43441755
0.41917273 0.13304484 0.43394187
0.42565233 0.13243285 0.43411285
0.432118 0.13200799 0.43494487
0.40503332 0.13745192 0.43386561
0.41100666 0.13679141 0.43209758
0.41725963 0.13625343 0.43088785
0.43675655 0.13552302 0.43106988
0.44314337 0.13560283 0.43246198
0.4492937 0.13584508 0.43449295
0.40186754 0.14206135 0.43334129
0.45922798 0.14146546 0.43322441
0.39959866 0.14860244 0.43507895
0.40229848 0.14809677 0.43181783
0.46795866 0.14838451 0.43276402
0.40020779 0.15154679 0.43399915
0.41626269 0.15365764 0.43301886
0.39878136 0.15728281 0.4334175
0.47523046 0.15624124 0.4331646
0.41249257 0.16290328 0.43357295
0.48070106 0.16455963 0.43416762
0.38208559 0.1706737 0.43504333
0.41372505 0.17296745 0.43307665
0.41796598 0.17240766 0.43308571
0.48117965 0.17191134 0.43226898
0.37670156 0.17908503 0.43425071
0.41453835 0.17934255 0.43418151
0.41810513 0.17888345 0.43304804
0.4464159 0.17965831 0.4336251
0.46950668 0.17514876 0.43217719
0.47001803 0.17586565 0.43272245
0.48080021 0.17910676 0.43098116
0.44254664 0.18484609 0.43393192
0.44858909 0.18151303 0.43102756
0.45074618 0.18297882 0.43371662
0.46573657 0.18439436 0.43273124
0.37207973 0.18797222 0.43412122
0.38811979 0.18799511 0.43412346
0.44367272 0.18575209 0.43219903
0.44630542 0.18773465 0.43339229
0.46624798 0.18511127 0.43327647
0.38574854 0.19108213 0.43413267
0.39259273 0.19272143 0.43402877
0.47887239 0.19034813 0.43178073
0.36827728 0.19722508 0.43465608
0.39067045 0.19528803 0.43510628
0.41122767 0.20482321 0.43547034
0.41854712 0.20104073 0.43376985
0.42177138 0.20064616 0.43425488
0.42945364 0.20263477 0.43422356
0.43143299 0.20409155 0.43300661
0.48322725 0.20168459 0.43517178
0.36534151 0.20672928 0.43584922
0.39470494 0.20928103 0.43182611
0.39791146 0.20727116 0.43162721
0.40048969 0.20902312 0.431624
0.40888771 0.20766754 0.43422651
0.41055477 0.20552668 0.43416342
0.4330588 0.2053953 0.43476105
0.45864058 0.20893972 0.43385383
0.46498302 0.20767879 0.43351397
0.46508679 0.20830561 0.43408647
0.39487615 0.21097995 0.43189958
0.39757305 0.21237926 0.43187603
0.40035057 0.21080029 0.43171129
0.43694788 0.21292771 0.4337047
0.4591274 0.21264964 0.4331969
0.46553954 0.21219772 0.43268013
0.48204824 0.21151809 0.43365803
0.36813056 0.21871534 0.43125927
0.3844938 0.21955962 0.43519375
0.40648165 0.21787262 0.43463752
0.43731731 0.21588865 0.43408665
0.37832621 0.22194469 0.43507525
0.38474995 0.22167392 0.43511158
0.385057 0.22334039 0.43584111
0.4069311 0.22027099 0.43560705
0.43475237 0.22470434 0.43386725
0.43534219 0.22374548 0.43496275
0.44314125 0.22373053 0.43090644
0.4799822 0.22128518 0.43281946
0.36679417 0.22825418 0.4340241
0.39379328 0.22732356 0.43103632
0.39786452 0.22743498 0.43256691
0.40199435 0.22719046 0.43241975
0.41246355 0.22840732 0.43496254
0.43341443 0.22640526 0.43425134
0.44398019 0.22511199 0.43094313
0.44593617 0.22570157 0.43090624
0.39788541 0.23153479 0.43230444
0.40160713 0.23113826 0.43261614
0.42327553 0.23154916 0.43461356
0.42569101 0.23113544 0.43512544
0.43438411 0.23494163 0.43171582
0.47705472 0.23086466 0.43266648
0.37124071 0.23995785 0.43239415
0.39941376 0.23640721 0.43127412
0.41331854 0.23845349 0.43257153
0.41685548 0.23820297 0.43244371
0.43211639 0.23694317 0.43188339
0.43663132 0.23729357 0.43175146
0.45219135 0.23812349 0.43414709
0.39783403 0.24494423 0.43566704
0.40359077 0.2402418 0.4313153
0.40847343 0.24325275 0.43129486
0.41275272 0.24223231 0.43257454
0.41716278 0.24229997 0.43262419
0.43351495 0.2405941 0.4320074
0.43598726 0.24032384 0.43191355
0.4499065 0.24100281 0.43493605
0.450362 0.24047868 0.43463877
0.45659971 0.24292506 0.43406317
0.47330219 0.24013789 0.43320063
0.39887598 0.24578312 0.435563
0.40029332 0.24682422 0.43572685
0.4138068 0.2452718 0.43121347
0.41868144 0.24617058 0.43109515
0.42512363 0.24614087 0.43088198
0.46877071 0.24899009 0.43441588
0.37620792 0.25116837 0.43294191
0.39509675 0.25094795 0.43561193
0.4246515 0.25352278 0.43560138
0.42697614 0.25326905 0.43524674
0.42753303 0.25966197 0.43522063
0.38123018 0.26158097 0.43568408
0.38590911 0.26361117 0.43362835
0.45262009 0.26332235 0.43283474
0.39221013 0.26628846 0.43181399
0.39720047 0.26836744 0.43107256
0.40012991 0.26956442 0.43103194
0.44121414 0.26854879 0.4314245
0.402767 0.27064189 0.4309954
0.40798816 0.27273381 0.43162039
0.42983335 0.27307951 0.43219879
0.41435742 0.27523154 0.43329316
0.41902348 0.2770232 0.4351604
-0.0097423419 -0.0052825096 0.43672428
-0.0029883457 -0.0071930005 0.43866524
0.003920902 -0.0085658142 0.44014546
0.036803722 -0.006962006 0.44011936
0.04235765 -0.005124778 0.4387539
0.057326548 -0.0052567795 0.43975344
-0.02151279 -5.4007043e-05 0.43784952
-0.015961602 -0.0034613586 0.4402957
0.012200045 -0.0048996452 0.43631813
0.018930271 -0.0043572085 0.43664414
0.025357451 -0.0033091202 0.43641961
0.047408011 -0.0029077977 0.43703771
0.061485022 -0.0023435357 0.43743026
0.07079 -0.0031645228 0.44047308
0.074315883 0.00071363722 0.4375717
0.085448176 0.0064927815 0.43800113
-0.031280991 0.012918932 0.43751848
0.094329789 0.014834469 0.439457
0.095149927 0.020557381 0.43633512
-0.032750204 0.031964853 0.43781239
0.10023518 0.031231213 0.44014016
0.099191949 0.037098963 0.43776798
-0.023242995 0.053878315 0.43979868
-0.021140531 0.059095442 0.43671474
0.074573152 0.079014927 0.4409067
0.079713397 0.075501628 0.44081277
0.0071330732 0.080634058 0.43898225
0.42708248 0.12941201 0.43889007
0.43335158 0.12890792 0.44048676
0.39608532 0.13493562 0.44042644
0.40190384 0.1335094 0.43892673
0.40800422 0.13221584 0.43798172
0.41430074 0.1310845 0.43764067
0.4206956 0.13014293 0.43793935
0.43845826 0.13178068 0.43643424
0.44456768 0.13175315 0.43855071
0.39726585 0.13760406 0.4376969
0.40068206 0.13582765 0.43714195
0.45510727 0.13624269 0.43711731
0.46050397 0.13678318 0.4402684
0.39330012 0.14250277 0.43925583
0.3960962 0.14343815 0.43692976
0.464634 0.14220677 0.43632603
0.46951732 0.14301749 0.43984503
0.39420956 0.14517802 0.43943989
0.39660147 0.14722782 0.43882129
0.40877813 0.14988242 0.4406344
0.47283292 0.14935659 0.43625444
0.3968811 0.15053542 0.43901661
0.40864927 0.15037355 0.44058645
0.476906 0.15026301 0.43978754
0.39486456 0.15568832 0.43857029
0.47928554 0.15725958 0.43668574
0.38816503 0.16284247 0.43648914
0.48638624 0.16625872 0.44081798
0.41409799 0.17278183 0.43633571
0.41698974 0.17236975 0.43706766
0.48683435 0.1736919 0.4389222
0.41456211 0.17925555 0.43624446
0.4172118 0.17881784 0.4369047
0.42830768 0.17893553 0.43871152
0.43172911 0.17968698 0.43863401
0.4777565 0.17832515 0.43988067
0.4026396 0.18377471 0.43978032
0.40640029 0.1817894 0.43956435
0.4350659 0.18075421 0.43857399
0.44867182 0.18119612 0.4363696
0.48641691 0.18096602 0.43764305
0.38803244 0.18809347 0.43826973
0.40034205 0.18527767 0.43992579
0.42768204 0.18914646 0.4392072
0.43061775 0.1896276 0.43913302
0.44402802 0.18570644 0.43649366
0.44560486 0.18691556 0.43651387
0.47398633 0.18757075 0.44043469
0.48686907 0.18722439 0.43911135
0.38563201 0.1912218 0.43740401
0.39259082 0.19270939 0.43791434
0.40736875 0.19290654 0.44004977
0.41175264 0.19299136 0.43990961
0.42695418 0.19338602 0.43942827
0.43115559 0.1923397 0.43924156
0.45259935 0.19422184 0.43862429
0.48350471 0.19190638 0.43734184
0.4853476 0.19197853 0.43967134
0.39062732 0.19535759 0.43684682
0.40816525 0.19676191 0.44020292
0.41098678 0.19672252 0.44010842
0.45486155 0.19782797 0.43871769
0.41184059 0.20431393 0.43854478
0.41839981 0.20091729 0.4375467
0.42143863 0.20051339 0.43754151
0.4285951 0.20207331 0.43765393
0.43153977 0.2038604 0.437464
0.44206393 0.20179008 0.43932268
0.44632971 0.20269129 0.43922436
0.45609865 0.20028213 0.43879122
0.40891492 0.20765062 0.43820548
0.41051635 0.20551734 0.43810365
0.43309984 0.2052266 0.437406
0.43520045 0.20771587 0.43982396
0.44296083 0.20605457 0.4394916
0.44579297 0.20552132 0.4393737
0.45882106 0.20930976 0.43657681
0.46526209 0.20879507 0.4369736
0.40735224 0.21089973 0.44088745
0.43705642 0.21264833 0.43794411
0.45922691 0.21212557 0.43699238
0.4656359 0.21171111 0.43681782
0.48653466 0.21293719 0.44055963
0.3633084 0.21636687 0.43768543
0.37804583 0.21903348 0.43763566
0.38454065 0.21875151 0.4382087
0.4065837 0.21737328 0.43847802
0.43739232 0.21639189 0.43785709
0.44617173 0.21945822 0.44000968
0.37862787 0.22304727 0.43916842
0.38487229 0.22116864 0.44019106
0.38513356 0.22323112 0.43814376
0.40703306 0.2203595 0.43727893
0.43486279 0.22454971 0.43835419
0.43555707 0.2233898 0.43833503
0.4436869 0.222225 0.44022006
0.44870341 0.22231057 0.44005916
0.45898724 0.2221821 0.43971518
0.48461747 0.22275133 0.43995011
0.36220339 0.22601838 0.44014233
0.41265464 0.22825885 0.43831065
0.43339109 0.22638784 0.43828467
0.44608667 0.22524746 0.44028184
0.45746365 0.22809622 0.44004038
0.42285827 0.23140721 0.43841997
0.42598385 0.23096189 0.4376367
0.48176605 0.23235486 0.43991402
0.36632627 0.23765163 0.43747687
0.45229432 0.23796853 0.438072
0.39734709 0.24432175 0.43845022
0.44973779 0.24117719 0.43643302
0.45023072 0.24060754 0.43763521
0.45693985 0.2424673 0.43808725
0.47801581 0.24162884 0.44045189
0.3712177 0.24889597 0.43693593
0.39302814 0.2491449 0.43861264
0.39910573 0.24570867 0.43902335
0.40089312 0.24704249 0.43852103
0.45486635 0.24517313 0.43639532
0.3939203 0.25001562 0.43601137
0.39706019 0.25230238 0.43777487
0.42435038 0.25344172 0.4379029
0.42794687 0.25295249 0.43909326
0.37641883 0.25944543 0.4386037
0.42483592 0.25993216 0.43726459
0.42683712 0.25954404 0.44022965
0.43031988 0.25918746 0.43777481
0.4635168 0.2573117 0.4362967
0.37809485 0.2613456 0.43852803
0.45760557 0.26499942 0.43882018
0.38419756 0.26663521 0.43767247
0.39107844 0.27067348 0.43663961
0.39836785 0.27405196 0.43623278
0.43507943 0.27498966 0.43605086
0.44645554 0.27039221 0.43636641
0.40595409 0.27671897 0.43645823
0.41372082 0.27863348 0.43731296
0.42236772 0.27911472 0.43805745
0.43986294 0.2766721 0.44056153
0.42712376 0.28002527 0.44022259
0.0029941646 -0.011214972 0.4456977
0.042247649 -0.011759131 0.44508982
-0.0099743158 -0.0065047974 0.44245383
-0.0036255424 -0.0091113541 0.44427058
0.010869198 -0.0093684485 0.44113192
0.017739676 -0.0095927427 0.44161248
0.024417415 -0.0092448853 0.44158792
0.030802008 -0.0083542578 0.44107953
0.047766037 -0.0099730585 0.44358826
0.052796282 -0.0077856509 0.44179413
0.062735826 -0.0094783902 0.44537705
0.066903211 -0.0065612188 0.44307664
0.079697669 -0.0026584768 0.44420701
-0.023890954 0.004262195 0.44280794
0.082832351 0.0017042065 0.44119841
0.090720072 0.0041178316 0.44566733
0.092840984 0.0093245916 0.44258547
0.10036569 0.019368039 0.44537753
-0.02939257 0.020769073 0.44408175
-0.031373516 0.026279008 0.44103807
0.10063446 0.025287952 0.44268939
-0.024712123 0.04836075 0.44292775
0.10085692 0.048497699 0.44504976
0.095518783 0.058582928 0.44277653
0.08860822 0.067460075 0.44137296
-0.0036676847 0.07270433 0.44491258
0.084404647 0.071620733 0.44097552
0.0019559357 0.077538043 0.44151181
0.063198358 0.084621362 0.44191331
0.069042951 0.082079887 0.44127116
0.044730376 0.088615768 0.44542903
0.05093921 0.087919608 0.44400895
0.057130139 0.086582325 0.44282973
0.4041582 0.12973319 0.44475567
0.40924579 0.12999219 0.44127652
0.41032717 0.12824728 0.4453232
0.41553435 0.12875932 0.44170925
0.42182279 0.12775809 0.44278425
0.42800266 0.12700926 0.44449347
0.43939835 0.12863718 0.44269758
0.44512448 0.12860024 0.44547412
0.39180943 0.13405444 0.4445478
0.39758784 0.13223881 0.44354486
0.40306112 0.13143015 0.44147649
0.45034668 0.13192225 0.4412474
0.45571524 0.13227738 0.44445735
0.38720188 0.13854691 0.44373676
0.39061707 0.13646229 0.44241598
0.46538016 0.13744134 0.44382504
0.38473746 0.14101203 0.44536677
0.38802418 0.14233747 0.44369948
0.3907178 0.14427221 0.44310743
0.47359663 0.14381528 0.44339737
0.39358574 0.14626634 0.44364002
0.39141357 0.15356846 0.44476756
0.40487915 0.15961915 0.44114053
0.40500802 0.15912804 0.44118845
0.48499295 0.15887554 0.44333908
0.38433009 0.16088177 0.44316486
0.37805316 0.168612 0.44206306
0.43441209 0.16990267 0.4411073
0.48893076 0.16705959 0.44445908
0.39838836 0.17459548 0.44250971
0.48937631 0.17450021 0.44256341
0.49050069 0.17485842 0.44422832
0.37253535 0.17695493 0.44150338
0.41260383 0.17950024 0.44227073
0.41924793 0.17837545 0.44200006
0.42572299 0.1784576 0.44179091
0.43182716 0.17954819 0.44164103
0.40490627 0.18242463 0.44265971
0.40731582 0.18130003 0.44252819
0.43769014 0.18168372 0.44154772
0.44279328 0.18449496 0.44151077
0.4889555 0.18178228 0.44128481
0.49007961 0.18214166 0.44294953
0.36784515 0.18580715 0.44149283
0.39838636 0.18671265 0.44307351
0.4004401 0.18513887 0.44293278
0.44425127 0.18551026 0.44151002
0.4475421 0.18821909 0.44152799
0.48885772 0.18783407 0.44249636
0.39383206 0.19112024 0.44342831
0.44943473 0.19009493 0.44155294
0.4521651 0.19336924 0.44161561
0.46324334 0.19204836 0.44118994
0.48748311 0.19316477 0.44346198
0.36404064 0.19505894 0.44203141
0.38996381 0.19644928 0.44380343
0.39005533 0.19629724 0.4437933
0.45368832 0.19555216 0.44166705
0.36116916 0.20459603 0.44311243
0.37627444 0.20337777 0.44457579
0.38703305 0.20249535 0.44310373
0.41155633 0.20439035 0.44346315
0.41824609 0.20072931 0.44307292
0.42238423 0.20023863 0.4429141
0.42967209 0.20220436 0.44276598
0.43285415 0.20455764 0.44277084
0.45702273 0.2021354 0.44186369
0.48749393 0.20303419 0.44173515
0.38523799 0.2089069 0.44281453
0.39659378 0.20719264 0.44106856
0.40045026 0.20799299 0.44097906
0.40896988 0.20755661 0.44369543
0.43345237 0.20516412 0.44277945
0.45892435 0.2086315 0.44210348
0.35926586 0.21430002 0.44472265
0.38472182 0.21340784 0.44476476
0.39667377 0.21157429 0.44126981
0.40040776 0.21081297 0.44111165
0.4065854 0.21470332 0.44108954
0.43744105 0.21400273 0.44305956
0.38473284 0.21752198 0.4449558
0.40670925 0.21660651 0.44292063
0.43761668 0.21626595 0.44315904
0.45960751 0.21509573 0.44238183
0.38540396 0.22311997 0.44519418
0.40759802 0.22129934 0.44177455
0.43580726 0.2230178 0.44353268
0.45913559 0.22171897 0.44270545
0.38639626 0.22674812 0.44533035
0.39822984 0.22700854 0.44193676
0.40261367 0.22709334 0.44179663
0.40999839 0.2255858 0.44148374
0.41273165 0.22793067 0.44286543
0.43238679 0.22723499 0.44248378
0.45728284 0.22877638 0.44309473
0.46799323 0.22805986 0.44270936
0.38799581 0.23129019 0.4441179
0.39902624 0.23086388 0.44208997
0.40184775 0.23082453 0.44199538
0.41781616 0.23062444 0.44146121
0.42241353 0.23122491 0.44292581
0.42709053 0.23047189 0.44169781
0.43375677 0.23460579 0.4411225
0.43530884 0.23460783 0.44107157
0.4543038 0.23498842 0.44348168
0.45566803 0.23249987 0.44332099
0.36204013 0.23556426 0.44318914
0.39107987 0.23680325 0.44383425
0.41362777 0.23802446 0.44194317
0.41757828 0.23813301 0.44181836
0.43204793 0.23737358 0.4413074
0.43706444 0.23745918 0.44114655
0.45254856 0.23765491 0.44366339
0.39471641 0.24121748 0.44573003
0.39831239 0.24494696 0.44105291
0.41373196 0.24197295 0.44212347
0.41750476 0.24190371 0.44199628
0.43375793 0.24039511 0.4413918
0.43531001 0.24039717 0.44134086
0.44864136 0.24224181 0.44400534
0.4502224 0.24056295 0.44387516
0.36673257 0.24679124 0.44157499
0.39409018 0.2497752 0.44121954
0.39928731 0.24563965 0.44202185
0.40244123 0.24747495 0.44576731
0.40595293 0.24948333 0.44574532
0.43832684 0.24957331 0.44287536
0.44385433 0.24630716 0.44314504
0.44518432 0.24529152 0.44426084
0.39588109 0.25113651 0.44142613
0.40920326 0.25099286 0.44338816
0.41244051 0.25188944 0.44564408
0.4173575 0.25288242 0.44432193
0.4213866 0.25317001 0.44540963
0.42675421 0.25289467 0.44522035
0.43312165 0.25154898 0.44494838
0.47341281 0.25045845 0.44155681
0.37250566 0.25766301 0.44174474
0.42772037 0.25939679 0.44096601
0.44587931 0.25684214 0.44477534
0.46801454 0.25873435 0.44321549
0.37625438 0.26606095 0.44539586
0.46188742 0.26635382 0.44540712
0.38255823 0.27086014 0.44399628
0.38940093 0.27499667 0.44311029
0.45111018 0.27195796 0.44195476
0.39667794 0.27840722 0.44275159
0.44411117 0.27810112 0.44566181
0.40427762 0.28103954 0.44292513
0.41208348 0.28285325 0.44362897
0.41997629 0.28382075 0.44485179
0.42887291 0.28065971 0.44154787
0.43292394 0.28208449 0.44536781
0.047732856 -0.015938148 0.45092055
0.0097787827 -0.012766934 0.44670114
0.016614528 -0.013731598 0.44725659
0.023386149 -0.014097962 0.447359
0.029980248 -0.013870416 0.44701436
0.036297236 -0.013077291 0.4462468
0.053207703 -0.014176077 0.4493008
0.058213092 -0.012002589 0.44743893
-0.0092921602 -0.0070111053 0.44930941
0.072215796 -0.0099663427 0.44953105
0.076128155 -0.0065577491 0.4469938
-0.014660589 -0.0035074223 0.4473533
0.088026814 -0.00071357377 0.44865459
-0.023897199 0.010569445 0.44948331
0.099422246 0.013573485 0.4481605
-0.026873661 0.015511743 0.44690582
0.10524748 0.03120531 0.45023367
-0.025623208 0.036789551 0.4491089
0.10435628 0.037161872 0.44828013
-0.025511425 0.04263268 0.44604874
0.10287367 0.042953521 0.44654736
-0.010544291 0.064301126 0.45017764
-0.0073071783 0.068744071 0.44748282
0.032671399 0.088108353 0.44887242
0.038609281 0.088670328 0.44706178
0.40483055 0.12829752 0.44901147
0.41087079 0.12684798 0.45034972
0.41650438 0.12701088 0.44652352
0.422584 0.12604943 0.4483459
0.42846423 0.12537672 0.45075512
0.43397135 0.12652361 0.44680303
0.43963107 0.12630458 0.44966331
0.45045012 0.12878837 0.44874886
0.38721153 0.13409305 0.44868869
0.39290607 0.13195902 0.44819689
0.39880937 0.13001297 0.4482953
0.37760276 0.13958552 0.44980866
0.38128486 0.13809092 0.44832921
0.38667485 0.13534735 0.44667086
0.46945459 0.13813628 0.44740281
0.37748063 0.14107531 0.45012158
0.38224345 0.14190504 0.44806719
0.38771933 0.14412782 0.44790629
0.39090541 0.14463404 0.44937864
0.39153734 0.14604966 0.44914278
0.402973 0.14723572 0.44988343
0.47932193 0.14526768 0.45007411
0.48262668 0.151796 0.44644985
0.48517451 0.15258192 0.45009214
0.38129333 0.1592181 0.45031905
0.39946836 0.1569041 0.44969615
0.4875395 0.15966892 0.44698048
0.48866448 0.16002543 0.44864541
0.37485966 0.16686249 0.44958612
0.4900555 0.16741697 0.44612393
0.36923572 0.17514729 0.449276
0.3644914 0.18396987 0.44939303
0.48404226 0.1803444 0.44902846
0.49363208 0.18319935 0.4502368
0.47963032 0.18965803 0.44858512
0.48091397 0.18952203 0.45058
0.49261394 0.18893944 0.44966698
0.36068541 0.19322084 0.44993529
0.49074718 0.19410418 0.4500483
0.35786483 0.2027858 0.45089635
0.49099439 0.20404159 0.44879857
0.49021569 0.2139966 0.44798732
0.35835484 0.22405072 0.44684201
0.48842078 0.22384594 0.44762415
0.35844696 0.23372713 0.44944441
0.48563179 0.23346744 0.44771409
0.38102433 0.23938927 0.44609517
0.36282063 0.24488606 0.4467884
0.48188326 0.2427419 0.44825551
0.36453533 0.25386885 0.45089573
0.36558211 0.25451759 0.44958258
0.47722158 0.25155461 0.44924209
0.36800775 0.25555995 0.44626752
0.47170445 0.25979629 0.45066154
0.3705861 0.26067257 0.4472875
0.4098556 0.26153499 0.44617781
0.38123059 0.27433941 0.45083132
0.4551079 0.27322248 0.44810471
0.38804242 0.27855682 0.45010433
0.39530933 0.28199384 0.44979724
0.40291992 0.28459761 0.4499149
0.42783484 0.28392699 0.44657522
0.43596146 0.2831578 0.44908106
0.41075745 0.28632829 0.45045543
0.0091431802 -0.015039886 0.4533146
0.015774159 -0.016673371 0.45390519
0.022471158 -0.017711842 0.45408767
0.029120918 -0.018142963 0.45386249
0.035612047 -0.017970473 0.45324054
0.04184569 -0.017222025 0.45224851
0.058542617 -0.017566891 0.45581859
0.063524075 -0.015406459 0.45389178
-0.003485057 -0.010149796 0.45098394
0.0026891413 -0.012848682 0.45233208
0.068039663 -0.012886767 0.45180973
0.083027601 -0.0070697046 0.45284072
-0.016848648 0.001740679 0.4538672
0.095612161 0.002740507 0.45382032
0.097824983 0.0080006532 0.45099103
0.10509939 0.01917897 0.45470366
-0.023840202 0.025157589 0.45484859
0.1055023 0.025177611 0.45238522
-0.025056815 0.030932117 0.45205733
-0.015491351 0.054142825 0.45579168
-0.01329636 0.059413623 0.45296168
0.10074639 0.05999475 0.45511195
0.094141744 0.069052711 0.45455354
0.090095535 0.073306233 0.45459068
0.085562006 0.077280611 0.45486405
0.014643985 0.082072511 0.45596403
0.080577247 0.080886312 0.45538831
0.02214021 0.085541785 0.45266169
0.42259741 0.12485145 0.45481616
0.43404946 0.12499921 0.45369977
0.41682619 0.12569362 0.45229712
0.44490311 0.12634493 0.45300603
0.46463034 0.13339496 0.45166641
0.37674594 0.13874562 0.45126092
0.47517642 0.13951248 0.45409849
0.3690272 0.14291786 0.45485064
0.37272006 0.14218293 0.45322254
0.37624878 0.14296561 0.45304468
0.38129869 0.14358523 0.45257494
0.38825932 0.14431083 0.45454192
0.39009592 0.14416349 0.45100227
0.38927355 0.14644787 0.45559043
0.48243278 0.14622374 0.45455042
0.38845697 0.15230872 0.45146605
0.48629957 0.15293761 0.45175728
0.39893734 0.15605859 0.45117894
0.49211332 0.16135453 0.45594445
0.49352938 0.16865198 0.45342615
0.49400958 0.17600182 0.45152652
0.49569005 0.18375979 0.45581451
0.49375075 0.1892423 0.45236972
0.49154377 0.19380189 0.45149973
0.35606465 0.21254626 0.45226434
0.49303555 0.2146803 0.45582831
0.35530695 0.22238098 0.45402214
0.49133414 0.22455229 0.45572531
0.48859289 0.23418537 0.45594817
0.35954148 0.24320948 0.45249751
0.3616243 0.25238049 0.45596376
0.36452362 0.25770319 0.45539027
0.36938038 0.26383218 0.45349464
0.37497795 0.26940596 0.45196724
0.46540064 0.26736489 0.45249617
0.45838782 0.27416644 0.45472339
0.44775957 0.27925512 0.45127481
0.43993369 0.28437746 0.4548783
0.41870227 0.28715944 0.45141068
0.42663237 0.28707829 0.452766
0.43442625 0.28608587 0.45450065
0.041130081 -0.021265857 0.46024847
0.047283515 -0.020559013 0.45904198
0.053109743 -0.019306714 0.45755121
0.0028592986 -0.013023896 0.46019068
0.077286042 -0.012452601 0.4566507
-0.0079662018 -0.006204539 0.45748943
-0.0027739238 -0.0097973542 0.45897776
0.089593582 -0.0065630814 0.45929402
0.0928443 -0.0021345543 0.45660225
0.10233019 0.0076781018 0.45968816
-0.019672431 0.014206598 0.45981517
0.10403442 0.013313323 0.45715195
-0.022024384 0.01955647 0.45744434
0.10969768 0.032159127 0.46042362
0.10895806 0.038204905 0.45888823
0.1076317 0.044088185 0.45758617
-0.017069399 0.048562005 0.45862156
0.10577296 0.049725782 0.456525
0.0094694262 0.07897833 0.4585014
0.075197928 0.084040552 0.45616981
0.063560836 0.088707104 0.4584918
0.069496334 0.086667113 0.45720783
0.057489939 0.090115793 0.46000347
0.4280901 0.1243303 0.45785403
0.43926096 0.12491102 0.45711082
0.4536956 0.12706216 0.46038404
0.45931083 0.12969363 0.45604041
0.47034165 0.13470076 0.45838445
0.36686707 0.14487655 0.45703351
0.37238309 0.14447469 0.45779577
0.37659767 0.14418639 0.4581266
0.38243839 0.14361222 0.45829502
0.38854307 0.14346926 0.45657483
0.47828698 0.1404613 0.45857665
0.35934553 0.14786522 0.46069598
0.36260536 0.14658096 0.45892015
0.36819041 0.14542532 0.45898387
0.38879585 0.14617601 0.45688677
0.39961523 0.14560866 0.45876914
0.38669711 0.15090972 0.45772892
0.39584512 0.15485428 0.45932326
0.48973331 0.15436043 0.45904648
0.37910017 0.15787648 0.45784339
0.37255347 0.16545169 0.45749825
0.49548811 0.16943818 0.45902243
0.36685312 0.17368972 0.45745072
0.4960123 0.17667171 0.457118
0.36206973 0.1824884 0.45770183
0.48764798 0.18157858 0.45754892
0.35826257 0.19173867 0.45824823
0.48387787 0.1908242 0.45810306
0.49324757 0.19471039 0.45700142
0.35547876 0.20132613 0.45908305
0.49367595 0.20469177 0.45625529
0.35375282 0.211132 0.46019608
0.35560149 0.23216829 0.45614812
0.35694453 0.24178676 0.45861587
0.48484579 0.24346015 0.45649368
0.36071703 0.25188345 0.45810151
0.48013911 0.25226194 0.45735517
0.47453123 0.26048169 0.45852196
0.36847603 0.26626682 0.46007225
0.4680917 0.26801735 0.45997968
0.37402055 0.27198353 0.45893079
0.38023469 0.27702042 0.45807406
0.38702339 0.28130019 0.45751533
0.39428273 0.28475749 0.45726323
0.4411878 0.28473842 0.45740917
0.45075294 0.28011659 0.4573155
0.40190148 0.28733927 0.45732164
0.4097628 0.28900599 0.45768923
0.4177466 0.28973213 0.45836082
0.42573032 0.28950664 0.45932612
0.43359166 0.2883327 0.46057025
0.44259089 0.28514221 0.46024051
0.028205749 -0.020896045 0.46167293
0.034738258 -0.021387463 0.461135
0.058241911 -0.021758251 0.46484014
0.063634694 -0.020040616 0.46299854
0.0088653713 -0.015808329 0.46109179
0.015159724 -0.01808068 0.4616496
0.021642668 -0.019789532 0.46184653
0.068593301 -0.017892996 0.46100935
0.0819842 -0.013943935 0.46426931
0.085943356 -0.010508334 0.46186036
0.09718509 -0.0025531892 0.46484679
-0.010137029 0.00016451397 0.4654474
0.10002656 0.0023648599 0.46226749
-0.016862214 0.0091722058 0.46194133
0.10927157 0.019969681 0.46412718
0.10980841 0.026046855 0.46217787
-0.018240869 0.036839887 0.46408781
-0.017992489 0.042762205 0.46140274
0.001974727 0.072134525 0.46304661
0.039488494 0.090464473 0.46560687
0.045354374 0.090983078 0.46359593
0.051386338 0.090875037 0.4617157
0.43322667 0.1241256 0.46134055
0.43790537 0.12421737 0.46515226
0.38223523 0.1291514 0.46403539
0.38768798 0.12692052 0.46593681
0.44797656 0.12546422 0.46457607
0.37160948 0.13454074 0.46197605
0.37684643 0.13170829 0.462713
0.46500608 0.13093598 0.4627831
0.36660224 0.13758899 0.46180904
0.47345138 0.13564283 0.46286482
0.35752663 0.14409091 0.46304941
0.36189112 0.14079298 0.4621824
0.37788269 0.14415911 0.46360171
0.38311312 0.14283894 0.46543735
0.38721743 0.14281394 0.4626801
0.3990556 0.14465038 0.46195269
0.35254362 0.14833193 0.4647904
0.35825729 0.14921637 0.46193388
0.36333323 0.14801359 0.46354806
0.36896813 0.14607081 0.46299702
0.37369794 0.14504659 0.4640384
0.38799265 0.14539856 0.4617705
0.48642418 0.14791514 0.46265629
0.35297793 0.15237901 0.46523556
0.35589266 0.15123902 0.46427211
0.38518509 0.15012614 0.46573681
0.39528549 0.153896 0.46250692
0.37778428 0.15687735 0.46562368
0.49164125 0.15538476 0.46462622
0.37116981 0.1644011 0.46567968
0.49404022 0.16225985 0.46153674
0.36542347 0.17260425 0.4659037
0.49691004 0.17012297 0.46496314
0.49749729 0.17719017 0.46305189
0.48894653 0.18134454 0.46129578
0.49725372 0.18412124 0.46172896
0.49668562 0.18981749 0.46282548
0.48517641 0.19059014 0.46184999
0.49494633 0.19497424 0.46421531
0.49518341 0.19451517 0.4644663
0.49549779 0.20497473 0.46399197
0.49495125 0.2149778 0.46396384
0.35310608 0.22103462 0.46157357
0.49331346 0.22485968 0.46413094
0.35354674 0.23091128 0.46319839
0.4906047 0.23449783 0.46449152
0.3550691 0.24063949 0.46505058
0.48685852 0.24377276 0.46504113
0.35928339 0.25187781 0.4628872
0.48212129 0.25256982 0.46577293
0.36368608 0.25995782 0.46148103
0.46090025 0.27477556 0.4617103
0.37958571 0.27886254 0.46561503
0.38635927 0.28318515 0.46523163
0.45304614 0.28067261 0.46369243
0.3936137 0.28665647 0.46503669
0.40123779 0.28922316 0.46503311
0.44296968 0.28576693 0.4634212
0.4091146 0.29084584 0.46522084
0.41712382 0.29149985 0.46559715
0.020899106 -0.020195261 0.47058925
0.027241576 -0.021981928 0.47040454
0.033677876 -0.023159031 0.46988598
0.04009892 -0.023712113 0.46904534
0.046396561 -0.023642916 0.46790257
0.052473612 -0.022978161 0.46648875
0.068354756 -0.021521008 0.47067556
0.014756104 -0.017839104 0.47044247
0.073290914 -0.01938558 0.46862563
0.0034409945 -0.011648463 0.46920913
0.0089097191 -0.014966449 0.46997499
0.090188518 -0.010982718 0.46984199
-0.001584274 -0.0079632262 0.46817434
0.093878023 -0.0070145815 0.46738359
0.10387981 0.0029694352 0.47081321
0.10627408 0.0083354712 0.46848321
0.1080851 0.014033189 0.46624118
-0.016759522 0.025033494 0.46899948
0.11303474 0.027646421 0.47101471
-0.017821545 0.030897504 0.46663263
0.11283851 0.033847794 0.46969742
0.11259519 0.039682489 0.46847913
0.11105237 0.045865405 0.4676505
0.10952344 0.051992442 0.46682951
-0.0059852838 0.060736027 0.4693957
0.10395257 0.063608348 0.46623442
-0.0031589239 0.065666847 0.46681589
0.098355167 0.071121529 0.46656716
0.092830382 0.07713519 0.46720931
0.09533412 0.075015567 0.46678272
0.085305892 0.083505675 0.46849123
0.029048568 0.08795362 0.46965107
0.080086023 0.086331658 0.46973711
0.44184691 0.12453043 0.46890214
0.39311191 0.12505947 0.46839377
0.45937058 0.12824804 0.46715277
0.46191463 0.12900227 0.47080505
0.46811435 0.13187189 0.4672659
0.35573119 0.13939881 0.46873781
0.47745928 0.13749905 0.47092482
0.35130149 0.14298904 0.46883893
0.37596127 0.14453192 0.46988788
0.3867051 0.14308381 0.46887702
0.39793789 0.14431372 0.46904716
0.48228261 0.14223844 0.46666157
0.34721738 0.14667217 0.4694345
0.36160147 0.14970957 0.46899039
0.36608654 0.14773197 0.46858546
0.37050816 0.14618395 0.46813089
0.38502654 0.1492417 0.47043002
0.48832566 0.1490549 0.46821573
0.34859276 0.1528338 0.46704683
0.35254422 0.15431044 0.46786615
0.35780951 0.1520763 0.471035
0.39416778 0.15355933 0.46960136
0.34337503 0.15797901 0.47090623
0.34815663 0.1563047 0.46894151
0.35026923 0.15526894 0.46779561
0.49299046 0.1564102 0.470543
0.49541649 0.16311517 0.46747166
0.49840209 0.17753747 0.4692553
0.36061662 0.18138511 0.46629336
0.48999369 0.18192741 0.46777105
0.49826121 0.1842629 0.46790728
0.49727088 0.18979515 0.46721557
0.35680878 0.19063485 0.46684384
0.48622358 0.19117305 0.46832529
0.35404703 0.20023908 0.46754825
0.35236567 0.21007881 0.46839777
0.35178545 0.2200319 0.4693819
0.35231373 0.22997513 0.47048858
0.35723063 0.24977751 0.46961239
0.35851407 0.25252944 0.46807027
0.36314031 0.26150689 0.46782225
0.47645167 0.26077995 0.4666777
0.36788663 0.26793972 0.46692017
0.46992007 0.26830134 0.46774435
0.37339649 0.27375466 0.46618065
0.46260729 0.27504072 0.46895963
0.45460406 0.28091457 0.4703086
0.43304774 0.28987646 0.46688938
0.44071889 0.28762376 0.46778581
0.44521299 0.28572682 0.46839276
0.4251425 0.29117507 0.46615615
0.051285651 -0.02502729 0.47604215
0.057288863 -0.024404895 0.47442579
0.063000873 -0.023216752 0.47262338
0.082007073 -0.017365627 0.47440326
0.086206399 -0.014431471 0.4721882
0.097600818 -0.0064852382 0.47557157
0.10096432 -0.0019911979 0.47318962
-0.010262829 0.0087702619 0.4747712
-0.012912484 0.013897354 0.47308579
0.11066305 0.013584109 0.47501555
-0.015103027 0.019340172 0.47115773
0.11103427 0.015534624 0.4744454
0.11218474 0.021579085 0.47267851
0.11307821 0.026274169 0.4713062
-0.009956874 0.049768206 0.47450912
-0.008271453 0.055411737 0.47197467
0.016406737 0.081409283 0.47557423
0.021579035 0.084501438 0.47302929
0.074011922 0.089568608 0.47119841
0.061981231 0.093012005 0.47475713
0.068777956 0.091131613 0.47273207
0.39841634 0.12359637 0.47136062
0.40351349 0.1225492 0.47477797
0.44747037 0.12562203 0.47572625
0.45362875 0.12660052 0.47137102
0.4561708 0.12734985 0.47502577
0.46303946 0.12935436 0.47247136
0.47214085 0.13379925 0.47529846
0.34244227 0.14303596 0.47584724
0.38209635 0.14261137 0.47186169
0.3866148 0.14269757 0.47503883
0.39803454 0.14352028 0.47395962
0.48418948 0.14348735 0.47219419
0.36289522 0.1496169 0.47251874
0.36850035 0.14734977 0.47430536
0.38479459 0.14952803 0.47312033
0.34016058 0.15411735 0.47192004
0.35911852 0.15190494 0.47457004
0.39426443 0.1527659 0.47451386
0.48966557 0.15024555 0.47410348
0.33704209 0.1580044 0.47382247
0.34472978 0.15939933 0.47177678
0.35054991 0.15782607 0.47468808
0.3773655 0.15623589 0.47354209
0.34133208 0.1624181 0.47484612
0.34595737 0.16039462 0.47359681
0.37072939 0.16372655 0.47400618
0.49617952 0.16390276 0.47367629
0.36496851 0.17190734 0.47450671
0.49773237 0.17068772 0.47117546
0.49868137 0.17769894 0.47563559
0.36015418 0.18067676 0.47503763
0.49061579 0.18131261 0.47328308
0.498667 0.1841713 0.47425672
0.35634613 0.18992616 0.47559229
0.49798721 0.18863936 0.47363964
0.48684567 0.19055824 0.47383738
0.49581766 0.19489169 0.47158125
0.4964323 0.2048862 0.47189152
0.49593395 0.21488474 0.47227052
0.49432874 0.22476351 0.47271344
0.49163663 0.23440006 0.47321495
0.35394382 0.23978516 0.47170398
0.48789093 0.24367495 0.47376871
0.35659966 0.24925521 0.47407073
0.48313802 0.2524735 0.47436792
0.35900813 0.25529677 0.47475046
0.36289448 0.26232708 0.47431827
0.47743675 0.26068664 0.47500509
0.36762115 0.2688255 0.47393546
0.47085789 0.26821247 0.47567251
0.37311542 0.27469239 0.47360751
0.37929332 0.27983794 0.47333968
0.38606012 0.28418326 0.47313607
0.39331234 0.28766194 0.47299969
0.44049734 0.28836271 0.47363678
0.44613394 0.28583863 0.47282958
0.40093881 0.29022059 0.47293279
0.40882263 0.29181999 0.47293612
0.4168433 0.29243582 0.47300997
0.4248777 0.29205853 0.47315285
0.43280277 0.29069379 0.47336301
0.045079425 -0.025044559 0.47743505
0.026246211 -0.021317882 0.47998366
0.032452807 -0.023182463 0.47942635
0.038766146 -0.024429698 0.47857118
0.067281179 -0.023669768 0.48070365
0.072597235 -0.02199642 0.47865114
0.014557409 -0.015916288 0.48019388
0.020249514 -0.018877529 0.48023829
0.077511996 -0.019873826 0.47654161
0.0092479531 -0.01250676 0.4798649
0.089866422 -0.013937525 0.48020515
0.093871802 -0.010475843 0.47792196
0.0043840669 -0.0087287361 0.47927275
-0.003850118 -0.00041753147 0.47741985
0.10363968 -0.00051124487 0.4806979
0.10607816 0.0032017119 0.4789893
0.10902638 0.0098779602 0.47643402
-0.0113849 0.037896007 0.47926903
-0.011001926 0.043897059 0.47695458
0.010719606 0.076539792 0.47880256
0.046636764 0.093433708 0.48018479
0.050931424 0.093681484 0.47858375
0.056884509 0.093430325 0.47649768
0.4083291 0.12191793 0.47857261
0.45113391 0.12671781 0.48105112
0.45729548 0.12770122 0.47669244
0.35377198 0.13382629 0.47778997
0.35868856 0.13062699 0.47956821
0.46652672 0.13116796 0.47964206
0.34903216 0.13733466 0.4765732
0.47408673 0.13523948 0.48076412
0.4793815 0.13884856 0.47642571
0.38174021 0.1425828 0.4783172
0.38753739 0.1434416 0.4808729
0.39827961 0.14383009 0.47952738
0.48553699 0.14483422 0.47804353
0.33650005 0.14899373 0.47615048
0.36471948 0.14924759 0.4764432
0.36717325 0.14856191 0.48063028
0.37471217 0.14502603 0.4763141
0.38524655 0.14927243 0.4805207
0.35634643 0.15432566 0.4784534
0.36095703 0.15149298 0.47849414
0.39450949 0.1530757 0.48008162
0.49038085 0.15147129 0.48024666
0.32990524 0.15705965 0.47819197
0.49371761 0.15742002 0.47672424
0.33416659 0.16207099 0.47622675
0.34365165 0.16384625 0.47803989
0.34844136 0.16079551 0.47984985
0.49628448 0.16460556 0.4800581
0.33161056 0.16625895 0.47913608
0.33809158 0.1656484 0.4777644
0.49791047 0.17111656 0.47756666
0.4903354 0.18144378 0.47825116
0.49843964 0.18383835 0.48067692
0.49800342 0.18818229 0.47945693
0.48656529 0.19068941 0.47880539
0.49599537 0.19422552 0.47832108
0.35359144 0.19954117 0.47616377
0.4964653 0.20442753 0.47983435
0.35192424 0.20940261 0.47674507
0.49596867 0.21440245 0.48062262
0.35136518 0.21938816 0.47732902
0.35192135 0.22937408 0.47790816
0.35358578 0.23923662 0.47847551
0.35638165 0.24882899 0.47974569
0.3590605 0.25536811 0.4806785
0.36295229 0.26240602 0.48087054
0.36768359 0.26891074 0.48101136
0.46348286 0.27495778 0.47636157
0.45540315 0.28083888 0.47706404
0.3933832 0.28775868 0.48103192
0.44054943 0.28843379 0.47953841
0.44672164 0.28574157 0.47849324
0.40100911 0.29031658 0.48090094
0.40889129 0.29191375 0.4807184
0.41690928 0.29252592 0.48048696
0.42493996 0.29214355 0.48021027
0.43286037 0.29077247 0.4798924
0.05569315 -0.02540583 0.48447332
0.06162402 -0.024825608 0.48265764
0.081169941 -0.019379346 0.48455533
0.085658982 -0.016875464 0.48239914
0.097261816 -0.0085227704 0.48478648
0.10020345 -0.0050180242 0.48294333
-0.0087007098 0.020130984 0.48508957
-0.01020045 0.025916053 0.48336315
-0.0111102 0.031868871 0.48141539
0.1160396 0.056447662 0.48528749
0.00074861548 0.063050866 0.48591307
0.0036492939 0.068024665 0.48353702
0.11016532 0.068516977 0.48470008
0.0070002968 0.072533615 0.48115456
0.10847516 0.071113147 0.4847289
0.10193717 0.079122312 0.48528749
0.034865197 0.090776674 0.48501602
0.036172997 0.091384046 0.48440933
0.41276389 0.12168562 0.4826186
0.43481168 0.12397079 0.48460171
0.36370313 0.12779981 0.48189282
0.36873066 0.12539923 0.48473269
0.46080896 0.12956877 0.48383415
0.34201181 0.13415819 0.48563528
0.46850187 0.13268791 0.48507115
0.33746463 0.13793647 0.48423079
0.33316934 0.14196074 0.48337525
0.38203904 0.14275008 0.48469409
0.38682759 0.14205982 0.48215455
0.39970371 0.14348833 0.48594829
0.4807511 0.14033948 0.48222947
0.32917953 0.14615327 0.483051
0.37415159 0.14563189 0.48277134
0.38592678 0.14880899 0.48388568
0.48626208 0.14626408 0.48413643
0.32553375 0.1504366 0.48322293
0.35969293 0.153348 0.48463896
0.31932932 0.15904839 0.4848845
0.35367319 0.15701713 0.48221216
0.37785017 0.15596177 0.48147872
0.4937788 0.15839607 0.48307702
0.34693033 0.1636976 0.48531789
0.37123904 0.16343831 0.48235184
0.32438135 0.16564447 0.48204702
0.33610255 0.1695216 0.48190403
0.34187561 0.16725795 0.48288316
0.32206374 0.17015275 0.48472726
0.32944298 0.17050841 0.48254353
0.36549509 0.17160952 0.4831295
0.49741513 0.17139666 0.48403597
0.49830514 0.17766438 0.48209205
0.36068937 0.18037406 0.4838019
0.48959464 0.18018249 0.48529124
0.35688159 0.18962333 0.48436067
0.48582456 0.18942809 0.48584554
0.35411873 0.19924292 0.48479897
0.35243514 0.20911366 0.48511147
0.35185161 0.21911307 0.4852941
0.49436459 0.2242652 0.48134288
0.35237557 0.2291173 0.48534468
0.49167308 0.23389359 0.48198599
0.3540003 0.23900226 0.48526254
0.48792741 0.24316823 0.48254386
0.35677096 0.24865048 0.4854199
0.48317397 0.25197446 0.48300979
0.47747153 0.26020312 0.48337796
0.470891 0.26775217 0.4836438
0.37318155 0.2747826 0.48109883
0.46351367 0.274528 0.48380387
0.37936208 0.27993178 0.48113152
0.38613045 0.28427932 0.48110917
0.45543128 0.28044665 0.48385629
0.44087419 0.28783607 0.48540142
0.44670248 0.28539619 0.48417306
0.049576204 -0.025370514 0.48611277
0.031102221 -0.021433122 0.48965248
0.037175532 -0.023375748 0.48872769
0.043368541 -0.024693703 0.48754036
0.06539464 -0.024262188 0.49098617
0.070997491 -0.023139121 0.48888114
0.076276258 -0.02148862 0.48672429
0.019708442 -0.015858643 0.49067628
0.025249187 -0.018908544 0.49030337
0.088309161 -0.015734334 0.48962283
0.014555288 -0.012357518 0.49077833
0.092427291 -0.012417107 0.48739815
0.0098498464 -0.0084866285 0.49062306
0.0019285663 8.0209065e-06 0.48963287
-0.0041770805 0.0093755489 0.48783058
-0.006668848 0.014595233 0.48658028
0.11968126 0.030380914 0.48981166
0.10951747 0.044799738 0.49020436
0.11926557 0.043519575 0.48702031
0.11824614 0.048643224 0.48620045
-0.0034215541 0.05196733 0.49048042
0.10836985 0.050116152 0.48946515
-0.0016287937 0.057673544 0.48824126
0.10352942 0.061646685 0.48862618
0.10122423 0.065388121 0.48861793
0.096156552 0.071774617 0.48901269
0.086714193 0.079863518 0.49060041
0.022402011 0.08412607 0.49099025
0.085381888 0.080848016 0.49089435
0.096023418 0.084671013 0.48620442
0.024933161 0.086165041 0.48962283
0.02742896 0.087323792 0.48846516
0.091767803 0.08773198 0.48702028
0.080167003 0.093914092 0.48981166
0.085903399 0.091395386 0.48836023
0.373687 0.12346216 0.48803604
0.41654104 0.12178028 0.48652655
0.3515898 0.12763752 0.49008211
0.43846866 0.12505729 0.48993337
0.45467895 0.12863457 0.48816127
0.34674522 0.13070284 0.48759186
0.46281713 0.13115755 0.4892264
0.46994707 0.13442281 0.4907721
0.47548971 0.13686001 0.48651788
0.32173979 0.14179276 0.49110556
0.38296196 0.14310291 0.49089193
0.38813716 0.14262329 0.48752308
0.40062532 0.14417891 0.48975149
0.48150492 0.14195752 0.48826292
0.31792736 0.14623106 0.49060917
0.36654407 0.14979911 0.4869985
0.37427709 0.14633745 0.48914966
0.38653415 0.14936331 0.48782569
0.48632059 0.14775652 0.49038059
