# .PCD v0.7 - Point Cloud Data file format
VERSION 0.7
FIELDS x y z
SIZE 4 4 4
TYPE F F F
COUNT 1 1 1
WIDTH 335
HEIGHT 1
VIEWPOINT 0 0 0 1 0 0 0
POINTS 335
DATA ascii
-0.14099997 -0.15149999 0.0077039525
-0.078062497 -0.15149999 2.2065938e-06
-0.017250001 -0.15149999 2.2065938e-06
0.020249993 -0.15149999 2.2065938e-06
0.083400004 -0.15149999 2.2065938e-06
0.11924998 -0.15149999 2.2065938e-06
0.15149997 -0.1515 0.011204914
-0.10893484 -0.11234199 0.0089184428
-0.079349987 -0.14649999 0.019007431
-0.017250001 -0.14649999 0.019007433
0.020249993 -0.14649999 0.019007433
0.084340908 -0.14649999 0.019007431
0.1117526 -0.11212184 0.0088941222
-0.13614929 -0.07769838 0.010213587
-0.071594492 -0.073981747 0.011142444
-0.028307399 -0.068071008 0.022778947
0.027966598 -0.068448283 0.021546604
0.074961774 -0.074617222 0.010765271
0.13155641 -0.078468829 0.013489469
0.15149999 -0.077127233 2.2099612e-06
-0.13643749 -0.033975899 0.0095044402
-0.071156137 -0.015275216 0.023780188
-0.039140057 -0.034188163 0.031199669
0.034225658 -0.038395796 0.028524088
0.071738742 -0.017032348 0.024154693
0.13287498 -0.033975899 0.014255843
0.15149997 -0.033975899 2.2112513e-06
-0.13643749 0.030975908 0.009504443
-0.074194767 0.021873016 0.026266312
-0.047077365 0.041961007 0.027383382
0.039262049 0.034748234 0.033583868
0.071008258 0.018251909 0.02639184
0.13287498 0.030975908 0.014255845
0.15149997 0.030975908 2.2140455e-06
-0.12401006 0.073901638 0.0088453619
-0.060069621 0.059670158 0.022740465
-0.028605048 0.07058309 0.018380878
0.028818103 0.071301408 0.024902236
0.061020561 0.059093371 0.023059392
0.12671904 0.07374277 0.0089762192
0.15149997 0.077593416 2.2163078e-06
-0.11062081 0.11088735 0.0088988105
-0.076340914 0.14004545 0.010368325
-0.017250001 0.14075002 0.0095044477
0.020249993 0.14075001 0.0095044477
0.082710005 0.14085999 0.0098845512
0.11207267 0.10945031 0.0087495046
0.15149999 0.14576924 0.0086195925
-0.018304773 -0.05829357 0.075590223
0.019644031 -0.058295783 0.07561373
-0.061535344 -0.010078007 0.076197632
-0.044178784 -0.037502516 0.07822676
0.043393299 -0.044014134 0.078294538
0.058389354 -0.018549845 0.076767705
-0.067716241 0.02243343 0.081066258
-0.043910969 0.043767363 0.086280651
0.040896315 0.046242401 0.076958001
0.058142252 0.019030521 0.077149399
-0.022438431 0.059749465 0.083725564
0.021109223 0.0660965 0.07969512
-0.01661022 -0.05579013 0.12052763
0.01764348 -0.056164607 0.1232342
-0.056824755 -0.014912485 0.12047777
-0.034329627 -0.038286675 0.12703949
0.0352832 -0.036027487 0.12734704
0.055856027 -0.016911717 0.12189635
-0.055697799 0.017711144 0.1212061
-0.036039747 0.035802312 0.12677586
0.035852674 0.03685746 0.12533361
0.056792591 0.016179372 0.12274458
-0.017740902 0.056092545 0.12004758
0.016388725 0.05617379 0.12197396
-0.018283164 -0.056631289 0.17432566
0.017609099 -0.057245389 0.1759275
-0.056557752 -0.014358826 0.17588331
-0.042483483 -0.042108044 0.17501327
0.042416714 -0.042578217 0.17381912
0.056878164 -0.018228516 0.1751951
-0.055292726 0.016002508 0.17471415
-0.037934896 0.039347026 0.18005638
0.038694881 0.043979783 0.17843321
0.057098933 0.015814902 0.173224
-0.013822857 0.055681128 0.1725217
0.01584436 0.055130247 0.17570537
-0.021582136 -0.0608273 0.2266193
0.023824152 -0.063161813 0.23140872
0.052109595 -0.051422529 0.24785808
-0.053044107 -0.017296543 0.20964211
-0.035077743 -0.021697715 0.23315403
0.025755178 -0.024928182 0.23465395
0.061707288 -0.022119248 0.22767474
-0.050928451 0.0041695288 0.20665953
-0.021676637 0.020093871 0.21610656
0.024694428 0.028731696 0.22699012
0.059724756 0.014211968 0.22632259
-0.024984626 -0.06597504 0.27764601
0.026934022 -0.078890204 0.2822473
0.061353587 -0.059576973 0.28444868
-0.054437939 -0.0058468161 0.29743987
-0.023755344 -0.027613116 0.27770427
0.013102124 -0.0071844966 0.26925302
0.072997525 -0.022615032 0.27794981
-0.059898742 0.027905971 0.28940371
-0.028500041 0.027655181 0.27463087
0.031197637 0.017241973 0.2803815
0.059024785 0.0098198541 0.2787905
-0.055651374 0.059432648 0.29184404
-0.025081012 0.065403156 0.28640223
0.01265544 0.057667281 0.29185769
-0.021808378 -0.070718512 0.32543442
0.02668082 -0.085456297 0.32568052
0.06319426 -0.065511048 0.32598454
-0.059425004 -0.013908697 0.3279689
-0.041138347 -0.038607556 0.32367733
0.075716704 -0.023698336 0.32554519
-0.073241457 0.024362192 0.32753816
0.041768588 0.039684169 0.32801029
0.059873927 0.013756742 0.32471794
-0.061488606 0.066513479 0.32342285
-0.026938146 0.085095063 0.32472387
0.025228713 0.071504839 0.32722324
-0.014127314 -0.062867582 0.36357033
0.028723074 -0.068177275 0.37301233
0.057447553 -0.063176557 0.36200786
-0.055001907 -0.010805378 0.36012188
-0.030271288 -0.020274617 0.3759633
0.027901467 -0.029030595 0.38763931
0.062635757 -0.025127174 0.36586004
-0.06414555 0.0254122 0.37434313
-0.018494515 0.0074217152 0.39192805
0.028239295 0.029068157 0.376771
0.057427913 0.031331297 0.377305
-0.058457632 0.061346281 0.36924958
-0.027542168 0.082501426 0.37126938
0.031309854 0.079656169 0.37040377
0.058643665 0.061948355 0.38173154
0.39512247 0.061552197 0.38190323
0.40660596 0.060038727 0.38187441
0.41339931 0.14723626 0.38572425
0.39203861 0.1743331 0.39066637
0.42092043 0.16641665 0.38917875
0.47263315 0.18998191 0.37142333
0.51469618 0.19868371 0.37020767
0.39382881 0.22458242 0.39775077
0.42219174 0.2169023 0.39898732
0.47877547 0.23036903 0.3757132
0.51236326 0.2087062 0.37055361
0.42335883 0.25256437 0.39705753
-0.010890584 -0.0035222918 0.43621388
0.024824366 -0.0085460255 0.44140184
0.065497726 -0.0062334375 0.44377315
-0.052399881 0.034498088 0.40379992
-0.028924482 0.014792323 0.41998422
0.027156692 0.01338588 0.41754848
0.077116027 0.02340227 0.42323244
0.10208139 0.033672228 0.44547397
-0.019532215 0.067330495 0.4222461
0.025909251 0.085604817 0.42656562
0.071632974 0.072476387 0.42524976
0.3903411 0.14248337 0.44433382
0.42091829 0.13700911 0.43448043
0.46203196 0.14082257 0.43824828
0.39640486 0.17563483 0.41456854
0.41981345 0.17796583 0.41875356
0.46808082 0.18018726 0.4295086
0.38946989 0.22556634 0.42785668
0.42070663 0.21870558 0.40711147
0.45726973 0.22278187 0.42919898
0.38631493 0.2602722 0.43754029
0.42462313 0.25765631 0.43310913
0.46141937 0.26027352 0.43948039
-0.0039319149 -0.0069064894 0.4626087
0.026333861 -0.018843258 0.47370678
0.075042032 -0.017061418 0.47541296
0.10147484 -0.0024036972 0.47779277
-0.0121242 0.025741506 0.47554159
0.0016313735 0.0054904809 0.49530488
0.096718572 0.0053705797 0.45240566
0.10957996 0.023994362 0.47396135
-0.0073219603 0.057858836 0.47080791
0.019444572 0.080328211 0.47822973
0.076172054 0.085844673 0.47430617
0.10860766 0.064243041 0.48224449
0.33083475 0.13997126 0.4874638
0.37876558 0.14230902 0.47231346
0.42724305 0.1256413 0.47275737
0.47121352 0.13638663 0.47676468
0.29791009 0.15941077 0.49922663
0.33103764 0.16753963 0.48465717
0.36480591 0.16259685 0.47698733
0.40064943 0.15419641 0.49880156
0.49395677 0.17616712 0.47760594
0.35507473 0.23218797 0.47686177
0.49160755 0.22444139 0.47815463
0.37119493 0.26712221 0.47441036
0.43073368 0.28775629 0.47583079
0.46591884 0.26932016 0.47615758
0.032405451 -0.010765983 0.51843107
0.075711742 -0.011675385 0.52365202
0.1072235 -0.0032087027 0.53271925
0.015453328 0.022844527 0.52739739
0.097453892 0.0027810023 0.5132581
0.12460995 0.023531588 0.52926928
0.026901944 0.076395094 0.52472788
0.0785712 0.092268452 0.51189411
0.12191003 0.075948454 0.52613401
0.049068108 0.10075302 0.53981918
0.073743492 0.10486389 0.53286296
0.10911079 0.10358838 0.54551363
0.24405414 0.13655791 0.54419804
0.27786684 0.1276564 0.52883035
0.32259062 0.11735458 0.5235948
0.38340548 0.13184512 0.51961529
0.41299468 0.14163698 0.52351147
0.46641991 0.14338766 0.51595896
0.2420164 0.16912569 0.54550922
0.2756905 0.17890592 0.52189231
0.3322165 0.1885093 0.51255608
0.37672037 0.17171253 0.52638698
0.43023866 0.16197187 0.53685594
0.46868241 0.16878052 0.52559286
0.28382826 0.20765147 0.53937966
0.31660992 0.20911017 0.53530347
0.37436575 0.2262647 0.52372307
0.42456818 0.22594763 0.54429793
0.47153127 0.22437505 0.5240047
0.38166887 0.261825 0.51646572
0.42432976 0.27210206 0.52064878
0.45981565 0.26313502 0.51346892
0.046371713 -0.00071037584 0.56351423
0.076604776 -0.0061924434 0.56648988
0.10146503 -0.0037963025 0.56227672
0.033586439 0.023725456 0.57679713
0.078741051 0.0089567769 0.59147817
0.12211246 0.02759658 0.57573509
0.030099878 0.074948415 0.57495153
0.13871075 0.072534092 0.58106387
0.18619801 0.0837235 0.59548867
0.22448249 0.082926556 0.58408874
0.27136585 0.08811561 0.57761031
0.30668855 0.096206099 0.58023894
0.047218375 0.1028892 0.5972054
0.075644091 0.11584055 0.57625115
0.12340238 0.11451738 0.58200502
0.18971032 0.12416881 0.58935577
0.22121267 0.12225264 0.5621562
0.28003079 0.10725378 0.56717849
0.33051202 0.11087655 0.5779444
0.37192085 0.13342294 0.57333714
0.41114378 0.14539456 0.55591375
0.19803052 0.15523575 0.5941335
0.22235158 0.17360698 0.57865322
0.25934675 0.1916196 0.57223582
0.34958383 0.19918685 0.59604114
0.38044941 0.18008204 0.57580972
0.41877764 0.16856553 0.55959481
0.24802926 0.20065039 0.58757764
0.28205824 0.21319491 0.57351452
0.32405877 0.21464525 0.5765
0.35920265 0.20423307 0.57161897
0.042823322 0.037978545 0.61437166
0.072047301 0.032773972 0.6176874
0.13258357 0.033432361 0.63896102
0.17177106 0.030381564 0.63449264
0.20935754 0.040545594 0.63666236
0.038895901 0.073756494 0.62660033
0.083096847 0.063321054 0.63924801
0.12652543 0.077695273 0.63401639
0.1666716 0.077109084 0.63101512
0.22794113 0.058616228 0.62113184
0.27346003 0.082536347 0.62669563
0.30677614 0.097787492 0.60322559
0.046325427 0.1061703 0.63478178
0.071044132 0.1305017 0.62801856
0.13939793 0.12226956 0.62647939
0.17454568 0.11900116 0.63173544
0.20514767 0.13596067 0.64248055
0.29565293 0.12186116 0.64433819
0.32183993 0.12908861 0.61842537
0.35186133 0.14667583 0.60427451
0.093095474 0.15389098 0.64582223
0.11677143 0.15602517 0.64371794
0.19745749 0.15472503 0.60812265
0.22271448 0.1768855 0.62636477
0.2746554 0.18412362 0.63310331
0.32490781 0.17272785 0.62034851
0.35519624 0.1666802 0.60473365
0.27839771 0.2040118 0.61143214
0.31582072 0.20494738 0.60606772
0.13555525 -0.0046571563 0.68850195
0.16238524 -0.0038260375 0.68897921
0.092027731 0.039430734 0.68181545
0.11759511 0.01890457 0.66906625
0.17918243 0.0082730297 0.67284971
0.21443222 0.031030832 0.68064648
0.045149792 0.085338488 0.66740382
0.072783597 0.070817053 0.67467141
0.11339423 0.066645004 0.65704417
0.18515746 0.092211761 0.67425936
0.24099961 0.07115674 0.6851263
0.26003852 0.086301029 0.66860294
0.046808332 0.10982503 0.67320532
0.059419252 0.13365154 0.68146193
0.17005411 0.12422661 0.67470598
0.220295 0.12283947 0.68141985
0.2704846 0.12439024 0.66985929
0.08391346 0.15864187 0.67652714
0.12680133 0.16526909 0.67684066
0.15509941 0.15465276 0.68668008
0.23349887 0.16065449 0.66266918
0.26380867 0.16441424 0.66048932
0.13579343 -0.0052906307 0.72123206
0.16075459 -0.0047608847 0.71669036
0.092079885 0.03330433 0.7155537
0.11691286 0.014095436 0.73661733
0.18051548 0.01823087 0.73360378
0.2099272 0.03626148 0.71847504
0.07830403 0.078879483 0.72859693
0.11580679 0.071254291 0.74751329
0.18713577 0.086032435 0.73056108
0.21461472 0.078348577 0.72055125
0.07146991 0.12406927 0.72900927
0.13149054 0.14073214 0.74894899
0.1683747 0.12462188 0.72453475
0.2194726 0.10432521 0.70606089
0.088631429 0.16025069 0.72025394
0.12076075 0.16293345 0.72910535
0.15563674 0.15379344 0.7154597
0.13410386 0.03542782 0.75733668
0.16196784 0.036718938 0.7565763
0.098244481 0.088952132 0.75369316
0.12784801 0.073199145 0.75978518
0.16121742 0.070128575 0.75751299
0.096109167 0.11522246 0.75506681
0.1234099 0.12375333 0.75679904
